ncols        534
nrows        42
xllcorner    65.2276219894
yllcorner    47.8739142537
cellsize     0.041716604078
NODATA_value -32768
211 198 209 217 216 208 212 223 190 206 216 227 237 257 252 250 244 247 241 233 196 191 224 246 240 265 268 252 298 310 316 350 356 376 391 384 412 483 471 514 457 429 424 432 450 446 449 463 504 473 469 478 484 491 488 500 533 513 500 494 492 487 490 529 539 553 550 536 549 502 522 483 472 461 453 454 454 476 505 519 488 505 518 497 464 452 445 437 426 424 413 404 398 392 391 379 373 372 386 388 393 374 356 370 358 363 365 363 366 369 375 372 377 379 394 387 408 406 388 395 410 395 388 407 424 424 415 415 410 412 419 430 431 465 432 419 416 412 423 419 422 415 412 427 430 424 428 436 461 459 474 476 495 483 438 452 431 435 433 440 458 462 470 494 496 487 514 502 516 584 527 495 484 487 490 496 496 496 496 505 497 500 509 517 501 511 533 541 546 544 535 546 605 590 573 578 577 565 566 574 585 612 639 644 682 677 711 737 691 726 733 744 699 732 670 659 674 637 629 651 643 682 639 674 676 689 693 649 644 652 661 697 680 670 670 674 677 681 703 664 783 687 716 701 735 793 715 748 716 714 740 775 782 732 713 835 871 775 789 812 884 805 803 752 774 792 751 787 771 754 696 769 699 718 776 775 797 795 770 770 795 730 736 702 696 762 726 708 751 738 703 688 751 733 650 647 617 591 596 627 621 608 594 612 665 609 520 515 532 503 491 472 453 445 446 452 469 457 437 430 426 426 421 420 416 415 414 427 460 491 389 420 420 407 455 487 484 469 445 410 396 399 399 392 392 396 415 424 405 411 443 452 431 444 434 441 451 434 429 398 411 436 379 364 379 351 355 353 354 357 407 441 425 406 377 382 423 362 335 335 365 380 409 430 496 565 536 501 476 472 412 401 398 424 494 474 552 543 560 578 567 615 560 539 511 565 617 724 714 689 760 764 703 519 632 724 714 801 614 684 901 972 933 688 746 653 586 773 668 682 808 697 820 964 605 543 388 403 388 388 388 388 390 463 388 429 557 688 790 926 722 677 639 563 677 582 545 560 479 598 641 541 660 724 885 950 768 587 628 948 901 685 827 936 1078 961 1328 1892 1603 1626 1897 1766 1920 1758 1356 1604 1499 1917 1892 1579 1679 1352 1565 1987 1503 1700 1838 1845 1550 1487 1557 1843 2204 1968 1818 1777 1669 1944 1632 2003 2093 1963 2439 2030 2074 2275 2467 2167 2526 1991 2450 2391 2409 2635 2389 2384 2235 2535 2556 2464 2235 2130 2623 2677
209 193 214 209 195 198 208 189 210 226 229 222 236 260 262 252 250 249 242 211 205 194 203 217 232 253 281 286 293 305 322 329 341 377 384 414 432 461 467 486 461 450 442 445 440 450 468 523 527 499 482 476 500 496 507 557 536 518 547 537 529 518 512 526 532 584 573 584 542 520 513 484 474 470 490 499 482 486 474 473 481 486 475 462 451 449 455 427 422 412 397 393 387 382 382 389 380 373 380 380 376 362 359 366 369 388 381 387 376 371 373 373 385 393 394 403 417 423 414 405 425 412 404 393 400 436 429 423 418 426 446 431 452 452 481 438 434 429 432 423 418 422 418 442 425 425 428 466 450 455 481 451 462 445 439 432 431 440 437 442 443 450 459 487 493 485 495 502 516 513 488 484 490 493 495 497 502 502 504 503 516 552 552 547 587 577 655 630 621 582 632 587 581 611 666 605 640 607 661 675 598 650 658 620 679 663 773 794 800 792 765 780 733 724 699 707 645 634 650 660 658 694 669 686 728 707 685 663 705 666 681 694 696 707 684 682 685 712 732 705 717 730 726 786 795 781 803 740 734 791 784 837 761 736 887 728 791 766 765 779 797 816 799 793 911 853 811 757 733 715 710 711 738 723 762 773 852 792 762 758 762 781 761 737 715 732 730 724 792 739 724 754 716 683 663 640 639 612 606 674 631 595 570 556 596 567 536 546 546 518 494 502 480 477 482 486 478 444 459 469 443 439 436 431 427 422 415 412 418 431 407 474 475 477 455 506 515 553 477 419 417 412 407 404 403 402 405 406 408 442 454 428 415 463 473 479 479 459 484 465 435 437 388 381 413 379 409 367 361 355 366 401 426 373 359 354 344 339 337 342 342 353 371 410 446 445 509 479 470 545 518 471 428 413 419 448 438 477 488 520 593 627 680 605 651 666 697 785 824 773 796 695 719 596 722 971 845 834 910 627 713 896 871 850 535 607 682 634 993 1069 839 866 927 803 686 676 425 388 409 388 391 388 388 536 412 398 414 496 496 585 578 641 674 701 885 630 634 793 543 505 559 777 932 742 715 907 1006 664 558 837 1184 917 828 822 1072 1463 941 1437 1124 1385 1781 1520 1337 1420 1318 1432 1488 1501 1485 1664 2259 1575 2070 2022 1909 2483 2174 1892 1742 2153 1846 1769 2153 1767 2217 1643 2022 2091 1691 1998 2274 2369 1981 2512 2490 2500 2583 2385 2466 2103 2656 2840 2478 3132 2581 2533 2655 2616 2491 1715 2326 2412 2527 2634
194 189 207 203 214 207 189 194 214 199 234 236 251 265 265 255 249 248 243 248 219 204 214 232 229 245 268 287 307 317 341 345 350 363 386 404 441 472 436 454 452 448 454 441 455 461 471 484 497 516 533 499 494 503 516 526 572 560 569 561 612 552 552 561 588 568 609 571 537 520 503 491 501 481 485 513 543 524 515 501 488 477 460 444 438 430 431 421 432 415 413 417 416 392 401 390 385 386 385 378 364 366 372 387 400 386 385 402 423 405 392 377 419 395 407 436 452 453 454 445 466 452 422 396 401 415 439 470 462 456 453 446 473 499 469 449 445 436 433 447 420 419 421 447 435 427 432 435 454 475 496 460 447 440 434 432 444 440 439 442 454 449 463 494 464 463 466 472 474 485 480 484 487 491 495 500 503 508 514 551 550 553 548 601 613 675 664 612 627 640 622 626 614 597 632 639 645 605 646 686 620 648 736 707 707 759 716 746 741 751 744 758 741 704 678 654 643 644 668 656 657 691 719 751 733 723 675 694 725 681 705 691 725 723 717 691 693 691 692 721 713 742 731 741 753 801 781 751 867 781 783 789 815 816 761 740 743 780 795 864 938 857 840 814 871 876 877 890 834 738 743 728 752 804 748 754 859 831 786 782 823 783 787 780 746 780 766 759 778 821 754 710 702 671 645 632 622 621 621 629 664 628 591 572 582 556 553 580 575 580 531 512 515 507 488 479 483 472 467 463 462 455 448 443 455 423 425 460 442 431 432 437 464 493 501 493 477 465 453 471 469 447 439 427 438 412 411 412 414 417 445 455 414 412 417 433 457 451 468 499 518 490 438 444 417 445 395 382 375 374 403 405 368 357 356 354 357 367 350 348 348 350 356 360 373 417 394 418 479 524 482 530 541 585 529 578 466 455 496 552 546 612 660 721 782 770 780 866 861 865 776 676 637 643 845 842 700 960 985 945 714 863 634 614 709 993 828 1099 1133 1111 1098 999 844 573 567 445 712 430 493 400 388 388 479 428 429 527 485 774 732 666 570 559 635 648 1068 1169 1229 784 884 535 691 589 630 691 619 699 845 1052 653 771 1087 1485 991 721 1096 707 671 1175 1367 1007 1387 1397 1394 1588 1366 1329 1433 1631 1646 1549 1866 1434 1509 1689 1812 2045 2267 2125 1968 2111 2253 1872 1831 2044 1685 2174 2193 1889 1898 2143 1900 1803 2195 2350 2114 2371 2551 2691 2502 2176 2572 2617 2941 2963 2538 2250 2223 1840 1751 1780 2611 2823 2901 3013
198 167 171 182 171 210 213 195 213 202 229 229 262 268 266 257 252 255 251 228 223 204 236 259 263 243 279 309 320 343 351 339 366 387 418 429 422 420 439 463 505 477 452 442 448 489 527 501 539 576 547 543 522 521 531 530 547 554 577 600 650 622 578 615 620 638 584 570 581 569 530 513 513 501 496 523 564 551 538 517 520 513 480 462 457 460 445 440 433 426 410 403 394 398 393 400 385 380 381 369 379 387 400 427 417 392 399 404 416 429 429 392 386 407 414 426 433 451 425 426 430 436 421 408 400 411 418 458 502 538 487 465 502 522 565 473 453 451 454 442 438 425 428 454 451 468 456 472 461 468 475 486 460 452 435 455 449 457 448 452 445 449 451 455 461 464 467 469 471 478 480 491 496 494 497 513 509 515 519 528 535 528 558 608 614 643 621 594 621 669 660 664 657 651 646 690 673 671 692 733 701 725 695 698 695 730 765 774 781 709 703 684 682 680 673 655 699 662 693 669 702 672 693 709 736 714 697 708 736 741 728 721 728 700 699 698 699 703 705 702 718 757 943 875 802 823 776 801 895 889 824 848 872 775 762 754 757 765 787 804 815 803 815 823 859 865 1018 915 1002 782 762 744 737 797 805 750 787 1016 800 792 824 844 814 797 768 757 769 812 822 828 761 704 679 669 650 654 635 655 636 606 645 645 610 608 581 576 568 588 612 578 586 607 555 551 536 516 520 500 483 478 474 465 459 452 481 431 426 420 434 432 465 481 482 490 527 553 531 557 493 546 506 464 461 451 441 438 418 418 421 424 424 425 427 411 411 415 418 422 433 457 452 461 473 518 467 469 451 412 391 391 384 431 413 385 377 386 395 393 380 358 356 361 365 369 368 371 380 390 409 449 519 499 550 516 545 603 594 469 484 506 531 564 608 711 702 774 883 852 931 823 753 765 665 663 652 898 740 744 1261 1104 774 734 794 904 1095 1156 1127 800 984 968 869 957 716 667 508 807 527 786 579 569 652 388 388 388 388 414 417 503 469 617 601 548 594 877 884 993 992 809 730 584 965 871 797 836 790 699 711 811 877 904 996 1018 1403 1140 901 678 1110 836 1001 876 972 1072 1453 1365 1372 1283 1520 1409 1491 1476 1508 1318 1603 1576 1783 1934 1984 2051 1799 2014 1987 2181 2224 2144 1517 2194 2190 1378 2483 2342 2432 2484 2349 2532 2426 2403 2428 2350 2333 2577 2322 2730 2560 2429 2219 2021 2408 2784 2736 2352 2418 2740 2715 2971
196 208 178 179 198 184 213 204 209 227 227 228 275 270 267 263 262 261 251 253 217 205 221 239 268 269 288 291 317 310 328 349 380 397 406 420 444 414 435 465 497 486 458 439 451 467 497 543 544 564 619 581 556 552 537 627 590 596 601 600 597 608 608 599 591 580 593 573 574 570 570 566 571 556 528 528 524 519 536 514 500 500 491 488 491 485 469 463 461 445 416 414 432 422 419 407 402 401 375 377 399 405 406 432 420 398 387 388 393 392 385 389 400 414 446 455 507 468 451 428 422 416 408 409 414 424 425 440 460 500 569 517 548 508 483 469 459 451 455 433 430 432 434 438 459 455 489 482 511 528 481 472 450 444 442 445 450 473 498 506 478 470 461 457 460 466 474 476 480 517 492 506 547 522 611 555 551 541 534 563 607 595 539 551 563 560 561 572 603 596 631 645 665 655 695 705 711 721 709 697 789 762 757 761 761 783 760 735 724 706 716 680 673 686 706 678 759 705 702 709 725 706 691 717 743 735 739 731 761 749 752 768 747 711 712 732 710 712 719 739 868 852 938 854 944 935 808 790 840 967 854 828 799 812 771 802 817 792 787 800 809 839 922 844 880 957 924 933 834 809 773 757 762 833 801 764 782 816 874 815 813 877 859 803 774 770 779 783 795 802 769 711 678 671 671 668 649 655 657 631 695 655 638 654 626 593 588 586 628 643 684 628 610 574 546 525 515 509 532 496 487 480 468 466 499 477 448 453 456 454 454 465 492 506 535 547 621 557 560 525 514 528 497 481 477 477 469 434 430 431 433 432 431 434 432 431 439 430 441 472 457 499 507 537 540 485 446 417 403 394 391 415 453 459 428 443 430 477 413 419 365 419 400 379 378 385 380 395 424 426 440 433 450 503 557 540 538 505 573 629 642 657 642 632 654 697 745 852 854 916 811 824 727 804 897 698 759 890 1070 931 1084 1072 1159 1106 1194 1082 931 847 1060 1133 840 779 801 699 727 763 526 811 795 699 469 394 446 449 401 403 388 388 423 497 445 957 598 658 930 860 783 821 829 761 779 896 840 901 954 741 794 844 1309 961 838 882 1073 1430 1077 758 872 1051 764 1112 1016 1183 1183 1058 1351 1153 1363 1602 1534 1506 1716 1312 1403 1879 1714 1670 1795 1758 1766 1842 2143 1960 1981 2165 1982 1685 1210 1421 1747 2161 2164 2018 2468 2513 2333 1767 2051 2380 2697 2601 2111 2059 2793 2572 2664 2439 2629 2838 2603 2465 2000 2448 2718 2622
207 183 212 182 208 193 194 209 214 225 218 240 280 284 275 274 271 255 257 237 213 225 261 259 266 280 239 298 312 323 355 333 361 392 406 414 422 435 467 456 426 482 446 465 522 478 499 549 621 610 622 577 563 565 557 580 625 677 720 664 640 614 620 602 582 568 564 559 549 546 538 524 525 527 532 544 553 582 522 489 476 470 495 495 485 475 475 452 447 415 413 443 508 509 448 405 401 386 397 419 412 417 436 442 444 415 397 396 393 389 389 393 400 426 441 473 497 480 447 457 459 445 424 420 432 436 433 433 450 467 489 498 508 507 495 491 464 458 443 447 461 470 450 447 463 466 487 524 558 510 492 473 546 546 500 495 459 462 475 507 489 499 506 463 477 475 501 486 487 496 527 539 558 666 561 616 632 575 551 575 639 636 559 539 546 586 572 580 585 607 611 626 652 677 656 686 710 703 681 690 687 704 725 754 765 802 773 729 736 728 720 718 702 683 721 741 726 792 770 719 696 730 711 732 765 758 750 770 989 805 790 736 725 723 737 754 740 722 727 758 837 791 838 1152 1055 849 854 824 839 906 859 865 919 804 795 791 814 809 808 821 837 858 937 875 886 948 1132 1004 896 846 795 777 782 795 837 777 774 787 806 839 826 855 894 847 801 791 791 777 755 733 724 706 689 690 703 810 746 674 672 696 721 702 704 659 615 610 619 640 616 651 702 652 643 611 576 549 531 521 517 509 495 486 474 468 488 508 506 489 489 484 473 472 491 555 628 637 622 585 570 539 552 559 533 501 493 491 465 441 435 439 441 439 438 437 470 474 489 452 473 461 498 502 476 493 553 514 447 419 423 422 472 428 426 477 466 484 494 437 398 381 370 374 380 389 391 393 391 391 394 407 443 461 490 478 482 471 471 552 633 783 767 688 726 733 761 851 767 794 944 955 1052 902 887 1029 1004 777 1019 1076 1461 1279 1139 1224 1285 1096 1039 1116 955 894 1037 1075 974 1008 856 683 828 834 596 866 907 738 649 423 495 634 833 801 637 394 388 388 522 578 533 579 623 831 762 730 769 786 733 742 809 1063 1062 882 951 742 867 1262 995 1055 1006 1023 1167 1030 619 1140 798 790 949 965 942 891 832 1229 1128 1425 1257 1320 1213 1400 1456 1582 1639 1882 2179 1987 1763 1814 2351 2182 2260 2290 1771 1911 1904 1628 1313 1514 1710 1597 1796 1463 1986 2256 2297 2096 2114 2324 2707 2340 2384 2205 2813 2702 2443 2785 2704 2340 2129 2394 2203 2292
185 194 192 187 191 182 210 200 210 221 235 244 283 286 286 280 269 260 260 254 218 223 274 280 282 290 283 309 318 278 322 347 368 380 389 392 403 417 447 403 430 417 447 462 532 523 566 635 628 594 608 594 610 589 589 591 607 654 681 664 675 619 605 594 591 582 587 578 564 544 530 526 521 549 520 508 498 502 501 505 471 454 445 455 466 449 435 440 431 431 430 434 445 429 415 405 397 382 389 395 397 409 406 421 436 420 434 417 411 395 396 407 405 410 432 453 465 468 474 466 471 462 463 470 447 434 438 438 442 451 459 475 475 463 472 483 464 454 450 455 490 519 465 450 468 482 484 488 520 519 521 488 502 533 504 521 483 493 495 538 543 511 469 467 511 512 528 508 503 515 525 525 538 569 585 618 617 595 595 597 594 576 553 546 512 618 630 620 628 631 639 659 675 688 706 725 709 765 681 696 681 716 804 811 774 816 758 787 854 872 847 779 732 706 702 710 736 782 820 780 722 711 719 727 737 755 781 796 816 803 790 784 743 740 773 770 724 732 737 760 870 861 902 918 890 964 989 854 874 894 925 888 843 816 802 939 839 834 857 929 885 862 892 881 895 956 988 1069 927 863 836 804 783 856 840 819 803 800 807 804 815 841 939 923 829 817 834 833 805 779 757 723 709 713 750 963 777 703 703 735 715 683 666 641 629 626 626 676 698 650 642 709 711 647 659 608 568 539 531 527 507 491 480 472 479 494 506 551 729 532 528 506 494 526 572 619 712 622 574 553 527 507 504 471 475 502 480 476 457 446 449 448 445 441 444 448 463 483 487 520 501 497 503 555 535 541 467 460 438 439 442 466 473 454 487 496 481 449 411 396 400 404 412 441 404 401 402 398 398 403 411 417 426 430 440 448 464 520 579 666 725 639 727 818 866 830 797 817 820 895 874 918 895 978 1080 869 953 1189 1372 1373 1277 1401 1264 1319 1346 1098 1056 996 1001 1386 1362 1041 1030 929 878 698 886 907 1087 664 918 529 571 716 931 931 712 732 684 456 388 425 437 572 689 705 736 611 649 727 909 991 770 785 949 818 721 664 786 1054 1023 928 1017 1118 1305 1146 1230 638 812 1142 1562 1531 1308 833 882 1041 1136 1313 1325 1332 1633 1837 2114 1852 2165 1645 1365 1710 2010 1903 1852 1997 1698 1657 2039 1802 1384 1090 1675 1352 1227 1482 2085 2199 2074 2093 2346 2289 2691 2291 2548 2527 2452 2105 2132 2404 2498 2489 2666 2487 2895 2591 2553 2530
192 180 193 186 196 212 213 193 209 213 227 237 273 291 293 291 276 266 261 251 225 249 263 287 288 304 281 304 293 322 320 360 333 377 413 385 383 423 404 393 393 432 456 477 701 623 621 601 596 592 625 595 617 618 609 613 615 621 620 619 618 640 640 624 635 669 656 621 574 539 531 525 517 500 510 489 494 477 467 463 456 488 498 473 455 444 451 441 474 477 460 452 439 422 411 406 397 399 403 401 406 414 418 429 416 410 421 416 428 415 418 410 411 416 428 437 453 461 472 493 523 504 504 518 477 450 453 447 456 476 484 468 459 459 459 470 480 479 470 477 499 483 470 457 452 462 467 476 485 489 496 517 523 536 553 539 529 509 530 495 492 481 474 511 509 513 511 529 536 547 556 554 540 552 589 580 616 609 622 587 588 574 559 554 554 570 606 692 689 683 734 725 719 754 752 742 684 671 648 685 729 752 735 774 798 855 873 812 812 827 849 795 743 765 730 754 781 784 829 751 787 731 758 748 753 764 777 789 816 811 771 757 757 760 775 850 778 759 744 753 791 918 890 843 951 914 907 885 902 920 877 844 823 820 815 822 841 938 876 918 1049 1046 971 1109 930 974 991 1010 983 929 869 827 803 801 846 837 847 856 836 835 839 836 842 853 892 853 904 984 932 879 890 864 740 739 762 780 737 707 758 836 754 726 677 661 653 662 681 663 710 701 676 672 659 672 652 611 618 605 591 564 551 513 510 499 486 482 487 518 542 559 615 557 502 539 559 600 628 603 559 537 520 498 487 477 470 462 469 513 497 465 457 454 449 441 446 451 456 463 470 479 489 493 501 504 570 573 487 477 467 503 487 471 506 516 494 557 582 526 452 459 443 474 476 420 419 413 413 413 409 409 414 420 425 436 444 453 464 511 535 565 643 599 681 671 798 786 764 867 865 825 888 793 847 927 1109 1072 1217 1226 1171 1338 1354 1277 1340 1296 1410 1404 1528 1429 1170 1312 1443 1273 1082 990 1053 1069 859 991 1085 851 727 850 699 765 741 776 910 847 934 654 462 388 418 566 532 653 553 563 596 600 610 736 613 694 717 663 818 545 557 573 694 890 954 1280 1318 1608 1432 1343 682 1389 1402 1001 1080 1360 1304 1340 1401 1333 1480 1525 1758 1724 1751 1755 1737 1424 1280 1387 1638 2094 1610 2176 1939 1549 1658 1491 1254 1584 1860 1881 1528 1555 1602 1807 1891 2177 2608 2357 2193 2106 2534 2573 2301 2038 2536 2417 2355 2520 2606 2497 2426 2398 2411 2444
167 172 183 184 203 202 220 204 203 209 224 231 250 261 280 281 281 279 271 239 227 225 229 264 305 309 303 320 326 331 341 360 318 381 410 350 374 408 381 407 415 433 452 487 652 579 579 578 605 582 589 584 603 618 595 600 620 628 613 621 623 631 630 632 647 642 602 579 569 566 546 534 521 515 512 499 480 478 475 471 479 483 493 494 483 471 475 482 489 486 477 494 472 439 412 410 394 403 421 418 412 437 448 452 438 423 419 424 442 440 437 431 433 437 437 485 477 482 518 513 525 491 481 465 461 465 487 487 482 487 476 466 459 457 457 457 489 474 471 499 481 486 468 474 459 471 495 474 481 493 496 507 508 527 561 560 541 503 498 487 479 476 496 483 490 513 507 522 555 558 578 566 544 560 570 603 602 587 575 567 563 573 562 578 561 574 605 660 654 694 685 663 642 650 649 646 647 641 661 723 707 707 714 722 772 820 817 782 763 791 776 761 781 742 734 743 779 798 835 832 773 738 760 771 783 783 812 858 952 964 969 848 790 784 788 820 865 762 753 760 774 794 981 1053 891 1012 958 864 857 866 846 860 852 846 843 852 870 957 940 937 1136 937 999 1030 964 921 916 916 936 903 872 842 841 822 829 843 900 869 853 885 884 898 885 871 881 896 939 1026 887 917 1063 996 770 756 756 820 745 726 750 847 783 733 696 682 668 718 749 751 707 743 707 701 671 631 716 690 682 693 688 669 618 587 546 531 517 491 484 478 493 501 509 498 489 499 523 541 548 565 561 547 517 543 515 540 510 528 491 510 570 489 473 500 517 459 484 465 470 464 471 478 483 493 503 503 510 533 543 540 513 513 567 527 508 569 543 514 503 511 479 480 503 481 475 450 428 427 426 426 424 426 421 423 428 438 445 450 493 478 523 534 526 566 654 842 803 767 720 730 720 758 754 811 949 950 1041 1216 1341 1303 1093 1195 1229 1202 1237 1329 1268 1303 1233 1234 1325 1270 1319 1276 1266 1270 966 966 1090 1110 936 954 967 980 792 871 724 787 767 780 794 848 688 586 388 388 463 434 460 514 433 467 477 464 643 686 551 532 651 529 471 633 691 714 708 859 868 1140 1196 1228 1289 1071 861 670 957 1084 1263 900 1115 1148 1083 1173 1447 1361 1444 1573 1175 1171 1012 1330 1058 1262 1413 1467 2206 1915 1598 1072 1221 1417 1352 1625 1766 1407 1266 1592 2032 2350 2543 2262 2367 2560 2382 2059 1842 2186 2334 2418 2697 2600 2516 2444 2514 2421 2363 2201
171 172 169 190 205 198 216 213 232 223 234 239 249 256 268 290 288 280 274 248 241 244 236 243 294 281 292 315 340 329 352 366 371 356 382 373 390 395 394 439 450 443 482 523 600 595 605 576 568 566 570 570 582 614 625 605 607 598 601 604 611 598 636 666 633 684 636 582 556 557 533 533 517 514 509 487 487 492 477 489 534 505 513 493 501 478 488 483 468 464 482 461 456 436 419 410 402 421 432 423 421 439 451 461 447 448 444 440 481 460 439 445 486 484 461 471 470 469 486 493 525 538 524 514 505 519 546 559 535 488 472 463 460 460 465 468 490 494 517 500 473 511 503 488 474 496 486 482 484 494 496 503 504 523 530 525 523 503 496 486 488 485 499 502 512 527 544 543 548 575 597 568 565 594 625 615 594 574 585 625 592 574 587 590 581 581 587 592 595 589 591 599 603 610 621 627 622 629 641 653 670 694 727 766 807 771 754 761 740 744 759 797 772 745 751 754 766 781 824 817 775 749 831 816 884 837 852 928 1032 1038 1088 854 812 815 845 842 851 830 768 764 794 834 830 950 853 907 849 864 875 895 877 890 891 850 864 892 1074 1019 1037 1103 1334 996 1019 986 949 924 909 893 884 902 881 865 829 834 865 856 897 946 935 890 944 981 961 912 906 924 958 1026 1091 1012 1014 821 879 858 793 762 741 773 798 822 753 757 711 697 694 711 775 743 708 703 668 636 644 629 635 675 729 776 756 720 670 661 590 564 560 625 613 563 517 500 501 490 494 499 509 546 588 571 596 548 538 568 556 571 562 540 523 504 490 476 471 515 517 483 519 496 530 500 477 505 513 499 515 520 512 528 537 567 624 644 587 558 528 520 508 496 540 505 500 484 471 448 445 448 439 436 444 444 439 445 462 441 431 463 477 485 511 499 481 507 517 544 625 743 706 723 686 745 927 955 851 861 887 944 1091 1177 1240 1169 1195 1068 1080 1076 1042 1078 1178 1184 1197 1147 1089 1147 1169 966 1060 909 924 970 936 864 1010 1081 1221 1092 966 809 775 761 763 791 756 724 662 677 421 426 388 388 429 491 425 409 409 430 442 478 554 448 440 457 477 560 685 576 676 786 943 882 963 1259 1226 1515 1158 1142 844 954 898 1003 980 979 1114 798 834 1128 1152 947 914 917 986 967 1082 1091 1047 1041 1111 1224 1019 1088 1190 1545 2197 2559 2851 2652 1597 1347 1925 1993 2109 2211 2431 2270 1802 1842 1981 1994 1935 2139 2668 2631 2487 2510 2531 2474 2246 2735
173 173 173 170 185 198 207 215 221 235 235 237 251 249 277 303 287 267 267 243 249 264 256 256 285 278 300 310 319 330 339 355 366 375 387 391 397 414 411 429 426 438 457 513 560 556 576 564 569 557 556 570 573 593 605 617 624 598 591 594 575 578 571 595 617 670 617 578 562 535 527 514 505 495 489 487 491 508 477 490 489 483 479 477 475 475 483 468 455 446 437 426 425 419 411 406 401 403 406 413 418 443 446 449 458 465 445 455 458 514 462 455 454 481 505 521 492 478 478 483 496 512 509 494 491 496 498 493 519 520 483 474 498 467 497 498 580 536 496 514 489 514 551 530 497 488 495 491 488 506 507 498 498 506 511 531 511 502 511 525 508 504 487 510 508 514 526 554 558 582 589 583 597 630 601 592 585 603 638 592 587 617 670 643 675 649 682 584 597 602 613 614 623 615 614 618 620 642 685 683 710 700 720 749 785 761 734 722 724 793 768 781 774 795 802 773 801 809 835 808 774 868 893 881 899 843 888 1040 1053 1002 881 856 846 849 890 1037 951 816 783 778 781 788 792 803 819 824 836 850 880 892 950 885 867 871 912 991 994 980 1028 1110 1218 1145 1095 1106 966 944 946 1005 916 878 866 854 841 845 861 867 897 939 956 920 936 925 973 1007 992 959 1039 1031 1034 1003 977 838 883 1037 859 803 755 832 875 855 816 777 725 723 727 719 778 750 723 691 670 670 672 656 656 670 678 710 791 717 670 670 646 648 577 543 617 616 637 609 583 566 505 506 513 529 531 545 531 589 559 603 689 721 608 549 523 501 488 479 480 485 526 518 537 564 573 520 509 541 546 509 522 543 541 566 592 574 589 593 659 629 589 594 518 519 539 579 558 525 573 494 507 467 484 492 467 463 476 516 473 498 518 481 495 528 571 545 511 589 524 537 630 722 650 784 678 804 812 883 824 872 883 965 1009 1149 1239 1186 1246 1164 1166 1050 1174 1028 1094 1134 952 893 966 977 975 963 883 856 819 791 779 831 808 942 947 1117 975 826 729 744 677 618 673 651 605 575 566 470 388 388 388 388 388 388 388 390 403 414 474 433 449 487 541 652 634 649 631 667 770 811 849 885 971 1118 1000 935 897 859 872 868 948 976 1021 1069 1194 1009 862 918 885 878 883 901 920 965 1124 1173 1230 1324 1768 2099 2372 2452 2644 2668 2630 2576 2379 2483 2133 2003 2222 2019 1997 2051 2528 2539 2434 2308 2844 2384 2334 2395 2361 2459 2439 2385 2251 2391
175 174 177 178 173 194 201 217 229 234 242 240 248 251 270 304 276 292 264 282 258 284 284 273 265 301 310 318 329 327 338 347 366 375 389 422 438 444 442 435 439 472 485 590 614 576 573 578 563 555 560 596 667 659 663 660 646 594 578 578 560 558 553 561 572 617 594 578 567 551 519 514 525 529 500 495 494 495 492 478 487 480 481 493 494 495 496 471 457 445 446 443 430 423 426 419 417 413 413 414 414 420 432 447 471 467 462 459 456 466 507 475 460 464 477 498 501 488 507 516 529 535 496 503 488 471 473 474 471 476 497 486 486 501 514 532 565 522 541 499 495 507 526 558 514 525 501 500 503 519 507 505 508 502 501 504 522 524 536 549 549 546 513 507 515 541 541 541 553 573 573 611 624 620 625 614 635 651 625 601 675 636 707 694 697 627 597 600 657 647 690 688 694 654 643 631 631 631 642 657 670 684 723 710 720 710 715 715 722 770 777 786 814 814 796 801 812 831 877 829 790 842 859 909 884 940 947 955 975 1083 970 973 900 866 896 1017 920 814 791 791 793 798 813 861 884 905 855 864 904 951 948 922 885 889 923 934 1125 1009 1069 1319 1262 1075 1061 1032 1009 1032 1163 1039 922 930 880 864 855 851 856 870 879 895 897 925 934 947 989 969 1013 1021 983 970 985 946 898 852 890 1021 885 792 783 901 917 865 790 774 775 785 765 797 770 776 729 709 705 725 755 779 770 782 759 689 722 791 857 798 717 648 615 577 559 555 595 620 664 633 584 530 521 526 527 531 557 587 572 615 643 802 800 578 530 508 492 538 491 505 522 530 553 557 569 569 532 546 524 527 535 544 546 565 550 571 592 640 600 574 553 527 518 509 515 584 618 627 596 485 510 544 536 680 552 501 486 510 568 516 498 519 568 555 571 578 576 610 565 536 578 668 732 633 700 719 758 848 945 1109 1122 1050 1167 1195 1253 1246 1112 1093 1129 1141 921 1148 1086 1195 964 938 884 1043 1135 1025 953 1057 853 777 768 747 772 724 693 703 700 588 536 614 494 558 607 559 468 500 449 454 388 388 388 388 388 410 418 423 436 512 895 981 1071 1143 1037 883 1110 879 1149 1321 1274 1224 1019 1021 1155 1234 1298 1362 1320 1720 1364 1121 1159 1396 1377 1318 1337 1328 1472 1486 1445 1424 1321 1319 1626 2128 2478 2661 2515 2429 2209 2252 2250 2174 2291 2410 2698 2830 2838 2420 2256 2318 3187 3032 2784 2522 2948 2560 2703 2799 2822 2787 2987 2915 3050 2904 3326 2487 2649 3083
181 178 178 178 176 192 198 208 224 233 246 246 248 261 320 306 304 282 293 287 256 288 289 292 289 303 322 333 337 345 352 360 396 407 403 421 478 501 519 446 457 552 562 561 565 584 550 585 553 548 567 573 569 570 587 600 607 646 580 559 584 534 543 541 547 558 573 583 644 571 547 523 516 511 524 506 489 481 496 496 497 490 491 515 499 483 486 482 468 463 460 488 454 443 449 434 464 439 432 432 425 423 429 439 443 453 463 473 472 475 468 481 532 482 468 477 470 490 500 530 525 505 489 489 492 467 460 467 460 479 489 478 489 508 532 574 570 574 525 512 504 513 521 541 534 519 512 502 527 524 553 523 518 509 510 526 531 527 529 537 532 512 505 509 509 519 523 540 561 558 567 580 626 659 637 662 694 668 648 631 662 685 654 638 613 614 637 654 722 681 737 868 729 776 705 652 647 637 656 686 711 734 727 702 690 704 713 724 773 751 763 757 760 776 877 827 821 838 872 827 848 793 839 834 855 877 932 973 951 956 901 880 861 845 839 842 819 810 803 805 803 813 815 831 929 922 900 905 953 1102 1013 938 902 904 910 943 1022 1312 1117 1038 1026 1069 1067 1075 1046 1009 1026 949 986 970 936 900 876 871 866 878 901 947 952 1030 937 930 945 956 981 994 999 991 961 916 888 901 965 888 894 788 814 881 918 852 800 772 801 835 860 819 832 750 729 708 743 869 937 1044 911 807 758 714 709 729 835 910 968 834 702 642 621 571 569 569 584 615 632 569 542 540 542 542 542 540 552 565 615 669 674 592 554 519 504 551 594 563 515 572 557 567 599 599 569 580 542 543 561 561 556 573 567 562 618 595 571 568 567 579 567 593 515 515 534 559 508 582 673 728 616 574 513 513 514 518 532 536 633 592 670 694 646 641 692 687 678 646 614 640 621 720 755 871 897 1058 1078 1127 1145 1202 1223 1165 1302 1316 1081 991 966 1002 802 1053 1119 1110 882 875 789 910 932 992 882 801 706 849 670 556 569 642 602 654 533 535 511 437 479 534 504 473 405 388 388 388 388 388 427 671 950 931 686 605 789 1448 1009 1411 1599 1788 1749 1744 1700 1880 2093 2135 2079 1420 2247 1469 2351 2353 2532 2580 2076 2185 2294 1908 2037 2081 2760 2067 1993 2412 2353 2362 2862 2643 2312 2203 2084 1976 1825 1775 1789 2037 1918 2055 2289 2485 2675 2851 2546 2312 2625 2669 2365 2613 2841 2447 2075 2386 2095 2202 2568 3042 2651 2552 2987 2837 2917 3421 3078 3099 2856 2912
187 184 180 180 179 183 206 208 225 236 239 254 257 275 325 315 303 296 298 282 288 279 293 295 298 298 306 333 361 357 353 365 406 416 450 468 498 466 479 483 493 592 553 535 541 554 550 561 550 542 539 547 560 568 591 614 647 622 569 549 545 549 530 540 530 533 548 574 617 585 547 528 522 496 503 487 490 482 488 497 504 518 517 489 471 463 468 475 496 486 482 486 503 492 474 451 483 470 474 477 462 443 433 443 455 460 463 470 479 495 462 472 506 490 470 460 470 474 479 487 498 491 495 478 469 469 459 451 454 468 470 484 502 522 550 650 611 574 549 530 525 531 535 555 540 536 529 536 533 536 534 517 515 511 522 520 537 553 547 550 529 536 539 513 527 541 564 590 578 594 627 656 688 645 674 719 700 647 656 642 679 649 629 626 634 654 704 730 879 770 909 743 787 837 700 667 659 646 649 652 668 712 675 685 704 735 727 772 772 791 850 822 869 791 794 852 864 866 885 873 823 861 824 824 839 858 885 912 936 896 900 1031 971 872 838 833 826 823 823 819 831 864 845 839 845 864 913 947 1029 1050 1002 938 923 924 928 928 992 958 981 1084 1108 1112 1125 1243 1060 1065 1103 1011 1061 1031 962 943 899 888 880 884 921 945 999 1060 1025 1009 960 964 1021 993 951 945 971 929 930 891 875 870 826 831 847 884 924 851 807 833 892 893 893 849 782 815 799 736 825 803 870 946 1094 860 805 748 756 725 786 843 980 965 868 844 764 678 628 598 604 596 584 568 558 557 557 557 556 550 548 564 587 631 631 580 563 556 516 531 554 520 515 542 572 668 685 625 621 644 613 570 603 579 579 574 588 625 624 647 620 606 584 565 612 575 559 527 534 527 530 538 557 569 568 560 539 560 594 585 551 647 591 635 821 921 762 800 843 793 710 592 702 600 611 700 725 795 779 863 962 937 988 1027 1144 1116 1070 1124 998 962 1003 851 1088 1077 1094 922 814 824 685 720 787 856 756 628 590 623 618 549 485 543 472 503 484 447 475 416 396 397 388 388 388 425 395 654 729 1017 1041 1316 1370 1696 1730 1499 1663 1889 1871 1775 1665 1796 1846 1815 2057 2017 2007 2403 2416 1812 2446 2071 2526 2588 2203 2510 2889 2746 3023 2742 2713 2588 3038 2254 2683 2457 2981 2701 2975 2540 2194 1780 1655 1634 1881 2136 2300 2390 2406 2493 2579 2717 2449 1932 2751 2940 2643 2512 2819 2560 2391 2402 1788 2027 2070 2616 2650 2297 2321 2311 2804 2326 2577 2677 2821 2777 2985 2426
199 195 191 183 185 184 187 191 204 225 240 252 265 284 330 319 310 301 299 285 296 295 304 299 302 304 303 317 333 314 354 373 392 398 428 434 444 459 462 471 492 525 530 501 547 538 535 551 599 550 538 549 562 584 621 596 586 595 565 546 545 529 527 521 511 511 551 574 568 560 572 570 535 500 494 480 474 479 467 484 482 475 486 489 463 458 469 483 502 478 487 469 461 460 468 474 475 476 474 472 475 457 467 451 481 460 472 473 457 460 462 453 455 454 472 456 445 459 457 464 470 463 461 468 456 472 453 442 452 462 478 494 526 614 581 614 614 585 539 542 560 549 565 593 569 579 552 546 552 551 546 519 525 516 552 573 539 539 544 564 559 539 523 526 562 543 546 567 590 641 666 616 608 612 652 659 675 713 703 689 702 647 637 654 672 726 831 1036 975 935 782 923 801 718 752 703 665 653 652 682 668 673 686 706 742 760 791 799 859 870 855 871 820 805 822 867 890 850 878 910 933 857 835 889 869 923 933 942 958 954 953 944 877 879 854 881 880 874 851 834 1028 981 979 939 862 900 917 1033 965 971 1114 1101 961 1080 967 943 953 995 1032 1041 1139 1295 1208 1096 1032 1102 1100 1163 1059 993 961 949 928 912 907 898 915 951 960 964 983 1039 991 971 968 987 983 938 957 960 948 913 861 854 825 822 837 884 903 926 862 882 873 849 875 831 862 824 814 797 832 828 921 933 869 818 795 857 842 742 825 855 852 863 860 962 858 808 712 674 655 647 616 597 580 578 577 576 568 560 557 569 659 628 586 582 568 530 552 575 585 563 537 548 555 610 711 706 657 672 667 590 592 593 590 621 599 609 638 690 655 620 603 632 628 581 554 550 565 548 556 593 662 613 628 592 578 627 603 637 623 642 674 799 631 686 726 778 840 700 745 741 655 706 672 658 666 751 923 927 898 906 824 873 899 856 922 828 824 788 765 733 783 857 885 848 1002 797 772 674 652 640 668 543 517 539 543 553 522 454 456 440 406 388 388 388 388 388 388 419 608 742 1001 1232 1436 1538 1614 1423 1467 1610 1689 1796 1842 1901 1707 1769 1800 1766 1919 2008 2056 2013 2185 2248 2511 2534 1972 1997 2354 2438 1988 2499 1988 2116 2289 2558 2763 2267 2761 2418 2573 2732 2482 2560 2157 2253 2415 2437 1674 2260 2534 2605 2428 2215 2376 2399 1896 1833 2254 2666 2415 2566 2430 2578 2711 1778 1783 2494 2059 2367 2348 2569 1760 2412 2194 2066 2246 2770 2747 2475 1689 1584 2163 2053
211 200 196 185 187 185 186 199 221 227 229 249 262 273 335 323 269 313 301 312 310 311 314 317 312 304 302 323 341 344 339 351 366 399 404 521 518 443 448 509 475 515 496 513 497 542 545 549 595 556 538 539 551 546 576 574 581 607 565 546 545 527 544 544 547 527 501 520 518 536 569 531 540 496 501 476 465 460 467 470 455 464 461 466 450 448 452 454 466 457 459 464 450 448 454 501 476 492 472 455 464 464 460 467 459 459 460 456 453 465 461 455 433 433 442 440 446 446 448 447 458 475 471 446 446 443 440 441 448 459 486 557 528 538 564 541 546 543 573 631 604 592 608 628 601 599 590 574 555 552 546 532 556 560 540 555 554 561 546 561 541 547 563 543 574 585 583 594 625 630 598 592 583 606 650 671 680 679 707 692 671 646 661 695 915 774 746 789 962 857 842 796 720 698 699 675 676 672 664 663 677 717 717 717 754 836 859 880 865 959 863 853 855 856 834 896 853 937 943 966 887 863 863 952 972 990 963 961 967 923 903 916 924 958 878 911 1017 1099 905 849 973 1132 1055 919 924 876 896 918 920 979 976 992 984 1055 1007 962 980 1029 1073 1140 1144 1325 1235 1096 1013 1056 1201 1112 1015 972 1008 927 908 910 913 935 959 945 909 926 966 1023 1054 999 956 937 956 1023 923 928 937 922 899 872 841 844 840 883 877 867 847 835 855 837 886 896 826 808 860 906 875 906 846 834 806 785 792 889 886 769 834 919 961 907 883 890 942 943 945 734 713 684 641 612 599 601 600 592 584 576 569 567 584 559 556 569 568 590 554 557 603 632 543 567 593 631 641 652 640 656 710 622 711 652 633 613 630 643 636 664 728 687 691 672 708 626 571 563 555 569 573 581 638 714 700 626 601 658 667 680 686 711 726 723 702 783 753 813 942 852 757 714 816 718 716 723 727 845 854 846 834 855 788 875 831 801 843 810 778 726 768 859 768 752 738 682 689 749 785 557 616 533 559 544 475 468 477 516 538 435 398 388 388 388 388 432 506 916 890 1011 1027 1104 1267 1396 1541 1501 1530 1518 1563 1645 1550 1581 1775 1727 1578 1791 1850 1931 1876 1974 2055 2166 2245 2354 2393 2475 1608 1946 2092 2080 1966 1901 2340 2127 2396 2602 2894 1970 2575 2254 2290 2229 2493 2749 2758 2983 2822 2305 1977 1537 1643 2078 1957 1968 1964 2223 2116 2174 1993 2328 2668 2083 2359 2184 2340 1576 1959 1815 1879 2492 2259 2098 2115 2173 2710 2851 1966 2420 2394 1488 2588 2763 2682 2778
224 209 204 199 195 189 191 189 205 209 225 249 240 262 336 254 318 311 276 305 317 324 320 332 325 323 312 315 335 344 365 362 384 427 416 421 427 435 446 456 469 468 488 494 508 567 522 548 554 544 540 531 528 539 563 579 598 593 563 557 572 575 569 549 527 511 498 497 516 538 548 546 523 529 508 485 481 456 453 449 449 449 444 442 442 461 465 441 439 448 441 441 458 441 451 453 462 477 481 460 445 464 481 468 478 470 479 493 471 447 442 440 431 427 423 437 441 442 440 437 448 454 449 439 434 432 440 454 454 467 480 503 496 500 509 517 521 530 557 585 635 598 620 621 588 611 632 647 615 569 541 527 534 542 561 564 545 551 572 563 576 581 569 603 605 609 622 595 598 579 590 569 579 620 638 636 661 688 702 676 665 680 686 711 778 867 796 801 876 826 770 722 715 706 679 675 713 700 678 673 680 707 746 847 781 776 887 818 851 819 860 877 890 867 875 908 905 888 931 1028 910 876 925 926 1000 966 1033 967 949 988 988 991 958 1076 953 935 1072 1169 1051 889 887 922 1030 1083 1014 907 897 898 906 921 966 1076 991 1037 1034 981 1017 1021 1124 1149 1095 1139 1029 987 972 1199 1153 1153 1054 962 934 949 902 911 892 875 882 908 889 910 966 987 1072 995 963 1010 927 936 926 894 919 927 907 866 862 871 882 878 861 845 837 830 831 833 865 845 830 859 901 958 855 840 816 827 902 886 938 948 830 852 858 921 918 932 886 915 964 941 936 823 835 725 698 704 678 630 628 614 598 587 580 576 572 565 559 569 609 679 594 571 589 591 594 564 624 593 604 647 619 642 736 668 710 706 685 701 657 838 671 673 678 743 732 681 630 592 600 573 629 627 606 613 605 665 691 706 754 671 738 723 739 733 798 847 837 846 851 861 887 801 755 735 767 743 816 772 863 1042 944 836 767 704 678 766 744 766 676 620 586 656 675 684 680 762 756 752 627 574 581 543 514 495 483 458 449 444 488 494 392 388 403 388 405 483 564 853 939 1140 1077 1233 1115 1167 1249 1376 1268 1371 1305 1471 1512 1547 1494 1528 1629 1491 1200 1470 1526 1818 1561 1945 2118 2206 2316 1805 2267 2092 1624 1823 1990 1957 2140 2117 1781 2245 2050 2328 2128 1777 2234 1842 2257 2582 2579 2756 2583 2768 2372 2215 1832 1792 1456 1900 1588 2079 1793 1930 1897 1742 1479 1772 1705 1478 1638 1931 1996 1448 1573 2010 1848 1975 1843 1810 2364 2167 2285 2451 1995 1994 1455 2401 2281 2873 2782 2732
227 228 213 209 204 195 195 194 197 214 230 228 218 229 242 254 272 253 303 321 335 336 328 342 341 332 329 311 366 367 396 429 414 397 411 442 442 441 455 471 482 496 523 523 570 615 578 552 577 588 585 557 529 567 610 679 604 583 594 584 637 559 533 518 509 498 490 485 547 518 528 508 521 502 495 483 468 458 451 450 442 441 437 449 463 448 459 438 428 428 425 429 435 437 449 469 474 494 465 451 434 456 463 454 470 483 504 522 501 497 467 455 426 421 426 438 436 449 455 461 478 456 439 432 436 430 437 462 481 490 493 482 472 501 483 491 504 511 532 546 552 578 562 559 551 596 584 571 623 593 566 521 522 619 542 528 523 552 586 584 559 579 595 587 575 623 575 560 581 563 568 562 577 583 592 623 653 669 672 646 679 699 671 700 709 839 728 764 779 781 775 716 699 691 689 690 756 722 688 681 681 716 823 857 791 759 776 768 789 791 818 859 875 924 982 1000 919 920 972 956 898 912 989 1053 1121 1124 1045 1009 989 977 1005 984 1011 988 1085 944 1012 1020 949 944 885 909 922 939 970 933 937 914 929 970 942 961 969 1011 1092 1012 1031 1025 1057 1089 1015 1021 1008 946 1042 1272 1145 1016 997 931 921 898 886 882 911 873 856 883 904 908 930 974 1008 1021 1022 985 1001 920 895 887 885 934 910 883 873 852 841 838 846 852 831 821 817 840 865 846 846 861 860 876 868 849 859 867 862 934 918 890 887 862 829 937 938 898 899 914 940 973 923 896 901 852 742 741 724 658 637 620 596 597 597 593 585 580 571 567 590 593 595 565 558 579 563 575 583 585 588 607 607 652 663 694 766 718 718 752 874 747 725 818 826 713 689 659 614 599 618 624 627 708 672 671 775 656 682 676 694 811 677 719 717 737 712 780 802 820 811 780 848 918 898 874 831 847 829 848 827 817 747 701 726 616 612 629 632 620 600 615 566 616 595 592 703 552 589 613 622 635 622 545 484 464 450 438 434 428 440 388 388 472 608 655 605 695 776 1090 1082 1012 1125 1300 1200 1241 1215 1265 1194 1049 1228 1264 1278 1282 1249 1325 1381 1399 1339 1022 1230 1025 1723 1773 2054 1783 1872 1450 1524 1502 1484 1489 1698 1790 1898 1870 1956 1612 1722 1713 2031 1738 1593 2068 2598 2517 2614 2113 2336 2474 2499 1983 1791 1527 1777 1796 1737 1909 1609 1494 1347 1385 1333 1293 1625 1385 1753 1745 1540 1678 1351 1655 1565 1580 1463 1829 1940 2042 1893 1363 1379 1629 1997 2605 2635 2783 2919 2820
229 232 235 213 205 210 201 198 200 204 210 213 217 217 225 232 233 237 275 280 322 340 344 353 353 346 346 326 348 358 377 396 406 453 408 416 426 441 463 488 517 535 563 597 588 603 605 583 687 674 600 554 510 570 623 610 633 582 555 551 565 553 529 521 505 505 491 488 481 477 478 484 486 491 494 494 518 480 458 446 438 437 434 434 433 435 444 425 426 426 424 427 434 463 458 465 470 483 466 438 426 445 441 434 449 454 461 468 463 455 445 438 427 421 433 428 427 424 479 460 479 445 422 417 420 425 437 465 476 464 468 459 470 481 506 533 526 529 527 552 576 552 520 572 579 575 590 542 577 552 524 504 512 515 506 507 515 553 594 568 539 538 553 544 547 557 544 556 545 561 551 558 572 577 595 605 650 618 640 634 629 635 658 707 722 717 753 730 753 768 727 732 710 715 773 732 713 715 739 741 693 698 708 717 727 746 781 778 784 799 831 843 956 993 948 997 946 972 956 935 931 949 968 1011 1005 1012 1001 1073 1000 1057 1055 1118 1175 1092 1005 986 1062 1012 1001 913 890 943 944 1003 990 960 955 939 976 971 1011 1004 1016 1042 1149 1068 1029 1071 1053 984 962 944 924 945 1014 1109 1082 1008 1039 906 901 883 877 860 886 874 843 849 864 892 990 980 975 1017 941 961 939 943 896 910 884 887 894 902 889 863 845 839 853 867 827 820 808 813 823 842 847 851 849 875 838 835 845 863 883 958 959 946 919 876 831 933 942 914 914 920 971 1025 1024 1036 940 921 862 783 722 726 719 660 619 622 617 611 601 591 582 574 573 571 577 562 575 580 564 560 583 611 594 603 614 621 651 665 756 711 745 723 738 863 851 831 799 807 693 654 637 707 699 687 687 758 744 824 789 792 770 702 783 760 749 696 701 690 701 744 707 790 741 835 958 910 781 821 784 859 751 753 681 699 651 617 585 580 575 573 578 569 538 538 593 527 569 534 598 618 535 498 498 528 562 538 504 449 437 429 426 452 398 388 397 569 785 787 759 825 835 926 974 929 995 1086 1081 1134 1165 1249 1137 1044 1100 1077 1181 1193 1187 1072 1198 1228 1231 1113 1222 1016 1073 1042 1586 1525 1407 1338 1389 1375 1041 1383 1508 1560 1438 1545 1605 1338 1400 1534 2208 1986 2113 2115 1750 1633 1766 2085 1882 1620 1559 1837 1457 1555 1403 1350 1290 1260 1232 1210 1225 1274 1278 1224 1198 1207 1301 1308 1751 1889 1752 1301 1295 1825 1585 1977 2039 1382 1429 2245 2372 2286 2567 2276 2278 2851 2765 2692
247 243 231 217 221 214 217 218 217 214 228 237 230 252 252 252 239 256 251 263 280 310 348 369 370 361 359 343 344 383 384 394 384 401 443 421 437 451 486 510 563 584 638 649 631 595 591 573 579 635 575 542 517 542 564 538 592 579 536 550 602 609 556 541 536 531 507 495 480 486 483 471 480 494 562 538 501 482 472 460 467 432 432 433 432 431 427 425 426 425 425 424 431 463 488 463 452 446 433 425 421 428 447 466 490 477 481 500 505 533 455 442 425 414 413 410 413 425 422 429 423 419 413 418 429 454 475 454 444 458 452 459 480 500 556 560 610 569 558 555 517 506 543 612 571 609 586 528 507 509 500 492 489 491 493 498 511 537 536 536 534 515 523 541 524 526 530 531 537 541 547 574 580 602 612 609 612 600 607 608 618 650 662 671 684 672 700 695 720 763 755 736 727 764 785 757 799 763 728 698 716 709 709 727 788 796 848 874 853 853 849 854 902 919 962 921 921 914 910 982 1001 1017 1075 1070 1048 1083 975 944 957 990 1023 1115 1129 1031 1035 1057 1011 1018 1000 944 911 926 962 1019 1052 1022 1039 967 1007 1113 1083 1070 1115 1102 1087 1019 1155 1127 1243 1059 986 931 902 919 1063 1041 1027 1022 954 890 876 859 862 843 852 866 840 845 878 885 911 948 1066 936 908 891 911 957 903 877 868 866 878 874 877 876 868 850 842 840 840 829 816 814 829 833 837 832 848 857 837 848 852 865 910 938 915 898 896 872 877 910 933 972 967 961 956 986 1010 940 914 875 838 790 795 764 847 739 657 648 642 633 620 607 593 581 581 584 587 576 573 572 572 567 580 591 593 599 613 627 634 654 674 726 692 704 749 786 831 960 867 778 757 681 666 706 709 760 763 799 822 836 804 739 811 723 887 772 743 707 681 672 665 682 690 660 668 775 826 830 705 742 727 759 780 694 627 590 568 560 537 540 542 546 540 535 526 519 498 501 525 538 555 583 600 558 524 475 452 442 434 432 426 421 423 432 388 393 587 526 578 692 685 720 800 839 860 838 883 1003 995 1042 1049 1085 1070 1061 967 1030 1036 943 1049 1150 895 1051 1084 1064 1086 1025 1166 1199 1098 1030 1011 1218 1203 1070 984 1019 1229 1244 1188 1374 1688 2300 2001 2057 2096 1859 1606 1493 1451 1443 1443 1443 1540 1443 1445 1443 1450 2104 1775 1601 1850 1520 1320 1246 1183 1161 1146 1144 1137 1424 1810 1721 1758 1819 1226 1546 1943 2058 1908 1880 1363 1691 2321 2586 2585 2618 2561 2710 2640 2745 2660 2835
249 248 245 237 224 213 207 231 233 235 243 251 255 261 269 267 242 273 273 270 302 303 312 324 333 343 364 338 348 373 392 369 383 403 472 431 439 449 471 498 565 567 621 618 685 631 610 588 580 556 549 522 521 510 491 516 529 541 521 536 575 612 566 584 541 525 521 502 493 489 489 461 491 509 497 520 494 482 474 471 466 455 428 431 430 430 446 446 449 460 452 458 460 449 448 435 440 445 449 425 421 425 462 476 459 451 460 492 479 464 463 431 416 416 432 417 406 406 417 414 420 407 410 429 428 426 426 430 435 453 449 460 469 489 510 568 563 516 494 495 479 504 556 528 521 520 585 525 491 487 486 483 482 486 492 519 537 521 505 508 506 510 518 517 524 526 529 533 539 545 552 559 563 572 582 580 587 594 601 609 614 638 634 642 656 670 677 715 724 788 760 801 768 838 776 772 811 759 723 709 752 832 726 717 750 789 808 799 824 814 804 822 860 901 944 889 870 905 888 927 1035 991 1102 1048 972 950 937 926 972 1022 1048 965 1010 996 1016 1012 1051 1012 946 932 918 917 957 948 999 971 990 1046 971 995 1017 1029 1018 1061 983 1005 1000 1158 1035 1072 990 914 879 887 996 1038 1046 1060 938 874 857 847 831 826 828 840 819 826 864 858 889 941 975 974 943 876 924 908 870 854 846 869 849 840 849 864 852 873 856 841 844 840 821 828 828 832 833 836 840 840 846 851 858 874 904 936 893 892 872 864 881 960 1001 953 905 965 1012 1024 1020 1015 962 929 913 903 849 842 840 809 696 681 678 664 641 617 598 589 590 591 592 592 597 595 583 577 571 577 609 614 641 631 642 648 688 741 681 741 753 778 765 809 885 891 861 762 761 694 705 794 926 935 900 852 770 785 845 806 811 751 710 724 711 670 677 700 657 661 670 747 702 624 630 633 693 647 660 644 600 583 571 522 524 511 519 517 531 511 508 497 489 483 483 480 482 488 487 531 480 487 470 470 437 420 417 422 459 436 388 455 587 574 516 531 596 714 767 731 770 784 859 847 896 866 924 928 939 960 866 916 867 891 771 964 960 840 758 951 890 924 1122 807 820 929 876 898 955 1162 1237 1777 2263 2171 1794 1651 1597 1933 1928 1962 1622 1448 1443 1443 1443 1443 1443 1443 1443 1443 1443 1443 1562 1759 2008 2367 2204 1721 2439 2025 1620 1368 1445 1497 1520 1402 1408 1425 1685 1858 1680 1814 1938 1981 2090 1855 1363 2199 2436 2531 2618 2684 2769 2532 2581 2870 2667 2234
266 257 244 248 240 227 218 236 258 252 265 272 277 283 284 277 261 253 299 313 306 303 303 308 326 333 350 360 355 416 380 384 397 411 431 437 448 471 485 512 580 540 553 606 641 674 650 634 614 564 536 516 509 498 482 511 526 523 541 534 547 542 526 509 516 561 525 492 472 479 456 464 474 490 511 503 513 491 498 467 447 435 429 429 435 450 438 446 447 454 460 460 465 437 425 432 423 444 427 417 410 413 428 462 443 435 443 468 465 440 470 454 427 418 420 412 402 400 403 411 420 429 413 417 421 423 423 429 432 440 446 463 499 551 549 518 566 499 469 469 488 500 494 516 489 518 534 497 480 478 476 477 507 496 490 490 495 498 501 505 509 514 517 520 528 528 532 536 540 546 549 555 562 566 573 579 587 635 612 613 622 639 643 662 672 692 705 755 817 1021 813 864 815 800 765 756 731 726 727 718 766 745 726 724 737 800 759 787 797 808 841 870 873 957 860 876 868 869 900 982 944 971 1045 1030 959 930 919 918 937 993 1002 999 960 964 973 1029 976 1012 994 1007 978 935 945 998 968 1008 1063 1019 941 948 932 943 1006 1005 949 921 937 959 1154 1096 1044 895 869 864 913 938 910 983 1083 857 837 829 833 846 814 809 809 819 834 857 884 887 902 890 927 868 853 879 845 831 851 865 872 875 835 823 844 854 888 898 860 848 855 864 860 862 891 898 873 859 863 905 937 885 887 903 893 872 868 905 902 926 956 987 884 924 963 975 1012 977 979 952 1018 1033 965 940 848 763 837 727 734 690 650 604 601 607 611 605 601 599 604 603 604 595 592 596 627 640 633 640 662 663 677 665 677 697 748 721 730 818 783 797 846 826 742 718 710 757 780 869 830 911 803 855 806 837 792 748 759 692 694 682 709 691 706 745 755 742 673 685 659 586 614 637 589 586 569 554 534 580 574 537 517 496 534 505 491 486 477 470 468 464 462 461 452 446 465 460 436 418 414 418 414 419 466 428 388 479 543 526 511 496 567 626 662 724 686 741 745 815 775 642 733 757 789 818 737 799 782 746 765 960 1013 930 1120 975 918 1012 1424 1295 1351 1372 1319 1434 1517 1523 1556 2287 2097 1880 2182 2444 2339 2301 2108 1667 1447 1443 1443 1443 1443 1443 1443 1443 1443 1443 1852 1948 1764 1841 1961 1854 2231 2049 1957 2361 2033 1935 1262 1162 1178 1193 1288 1320 1428 1369 1137 1533 1693 1921 1721 1817 1363 2161 2262 2395 2531 2279 2260 2225 2666 2452 2615 2862
265 264 264 258 255 237 221 221 212 263 271 278 281 284 287 290 284 270 296 317 324 326 317 325 324 345 358 357 354 396 398 400 409 428 438 435 467 490 494 563 696 823 647 620 635 638 654 587 567 596 561 513 494 479 495 521 529 540 538 515 532 565 545 531 508 487 496 503 469 449 513 521 498 514 508 483 489 477 466 459 446 432 424 424 433 440 442 452 445 450 444 446 443 454 458 417 407 416 430 400 403 412 419 428 434 439 434 457 439 427 446 443 454 424 436 399 396 395 399 425 479 419 411 410 413 418 429 434 437 474 461 489 497 484 513 550 470 468 489 480 473 477 482 503 475 478 475 467 470 470 476 477 482 487 491 491 494 497 500 507 511 515 520 521 537 565 538 558 557 545 550 563 556 561 572 604 610 611 621 656 646 658 662 670 694 767 766 833 805 807 795 782 821 763 805 754 730 723 753 748 753 749 745 745 733 742 749 784 862 828 900 889 859 897 842 845 916 914 926 947 949 940 963 996 987 922 906 906 896 978 1004 983 964 919 922 918 925 1085 1033 945 968 970 1051 1009 980 1033 987 1007 922 898 903 953 935 954 1057 978 896 1024 1051 1003 925 923 889 841 851 914 955 916 914 857 818 810 806 817 794 798 818 815 827 862 864 882 880 862 856 842 838 853 839 820 831 853 844 843 827 832 805 810 841 870 861 850 852 848 868 911 899 886 886 884 896 903 891 869 853 864 863 894 892 867 857 871 901 870 923 954 990 1016 998 969 939 971 996 1008 969 918 876 859 915 783 828 826 674 628 632 631 631 625 619 615 617 614 615 594 606 621 656 663 655 664 665 676 681 679 690 698 749 739 784 753 931 801 800 791 799 718 747 768 773 866 913 852 839 859 773 758 764 725 723 691 687 717 734 725 751 661 660 716 677 624 606 600 581 580 580 560 563 585 611 582 632 593 530 502 485 510 517 519 473 463 459 452 447 440 439 435 430 424 418 410 408 410 410 445 432 433 392 412 459 501 489 468 478 513 541 543 626 655 647 621 628 551 564 590 624 639 726 745 765 794 829 782 841 989 1053 1090 1173 1370 1395 1445 1498 1414 1563 1661 1782 1902 1652 1648 1667 1587 1901 1805 1870 1865 1809 1693 1484 1493 1443 1443 1443 1443 1443 1443 1443 1746 2015 1801 1711 1721 1721 1714 2219 2179 1907 1749 1863 1641 1314 1092 1301 1327 1500 1531 1318 1105 1318 1520 1934 2560 2189 1709 1362 1811 2104 2260 2169 2152 2137 2172 2371 2062 2019 2129
276 274 274 263 254 240 233 229 220 215 251 268 268 292 297 298 295 291 289 305 319 326 332 333 336 337 342 353 354 374 382 419 429 425 452 460 468 478 519 578 747 1004 651 614 586 576 565 612 553 552 562 522 512 481 495 472 461 514 543 499 565 534 557 514 509 498 478 461 459 453 471 502 521 512 494 472 472 474 450 438 430 428 443 446 430 433 450 449 456 459 447 437 445 436 437 425 399 417 416 401 402 396 418 433 415 429 421 448 443 415 414 432 441 426 404 398 396 392 401 426 433 411 406 410 408 422 430 439 426 432 436 469 457 473 480 508 467 561 594 492 461 471 463 463 464 462 460 463 465 474 476 480 480 485 487 490 490 497 500 504 508 525 541 533 538 619 568 559 591 563 581 587 584 593 612 601 639 657 654 651 703 757 691 726 798 804 836 852 815 789 766 753 760 745 763 769 736 762 779 768 749 790 783 745 742 746 753 761 784 792 841 820 835 819 852 885 944 913 927 943 936 921 950 962 980 922 930 882 906 906 951 941 949 975 897 900 919 940 949 914 951 1028 1072 1060 973 1035 931 920 917 887 876 884 944 928 936 940 890 900 900 890 882 840 838 833 882 945 969 904 846 833 798 791 790 781 785 789 830 841 826 850 871 893 870 866 846 845 834 820 812 807 808 821 841 813 804 794 784 790 806 845 874 863 827 846 869 886 863 864 846 864 887 887 862 872 845 861 886 914 953 937 850 834 829 871 875 910 935 959 1023 1024 1012 991 982 987 957 952 1033 949 936 892 856 907 758 694 673 665 659 648 637 632 630 632 624 647 633 632 664 708 695 694 689 702 699 720 701 720 762 817 788 766 784 783 765 763 736 821 804 808 800 847 831 791 775 801 804 743 722 706 706 699 724 704 742 670 651 660 623 616 609 626 621 599 577 574 563 559 586 566 636 670 612 559 519 501 512 481 469 468 463 458 457 448 444 439 435 427 425 418 417 412 406 408 409 410 411 436 431 388 394 492 488 487 461 471 496 502 542 530 535 506 518 533 557 582 631 722 837 899 897 940 977 914 828 962 978 1047 1239 1468 1631 1808 1782 1791 1622 1443 1519 1682 1365 1701 1642 1475 1533 1333 1438 1346 1399 1557 1657 1657 1961 1754 1854 1679 1712 1786 2025 1956 1866 1598 1583 1677 1782 1715 1696 1682 1762 1583 1616 1628 1503 1348 1007 1331 1626 1256 1046 1828 2471 2517 2920 2799 2520 2726 1562 1939 2295 2386 2644 2500 2584 2765 2953 2775 3031 1587
257 277 282 280 266 259 243 233 226 219 230 234 244 256 294 303 304 305 301 283 319 324 329 342 354 363 361 374 369 370 378 396 430 439 440 468 494 556 756 667 727 738 680 636 607 596 567 561 537 515 539 500 496 507 473 473 458 470 502 589 522 516 541 525 539 513 482 470 465 474 458 441 456 479 509 488 464 455 437 439 452 459 466 467 471 450 454 470 466 465 459 481 470 437 411 403 397 425 425 389 392 404 405 407 406 411 416 418 417 406 408 435 439 427 422 419 396 390 399 413 424 400 403 407 405 415 418 419 419 436 424 429 432 447 464 475 496 477 472 458 451 494 449 452 455 456 458 465 467 472 485 487 485 489 491 495 499 499 502 515 519 536 542 533 536 540 545 556 559 561 568 572 578 584 595 614 633 656 653 676 754 695 705 831 915 809 909 877 848 768 766 731 751 735 782 751 763 822 786 766 814 777 763 765 778 759 765 761 771 779 788 818 808 840 888 949 928 993 977 968 994 991 904 910 944 929 891 875 863 961 951 926 893 885 912 869 896 889 908 973 952 981 1023 1040 987 946 947 910 883 883 860 869 864 854 945 866 916 852 856 847 846 888 805 846 837 880 887 842 826 807 805 772 769 773 779 781 801 844 852 837 868 891 889 895 897 868 848 836 807 798 789 792 797 798 791 797 777 776 779 799 805 812 813 787 805 842 859 814 840 864 856 872 860 868 834 844 882 881 880 935 902 830 800 829 835 917 905 941 958 953 968 940 929 956 973 987 1003 991 972 993 913 903 817 747 714 699 688 671 659 649 652 688 644 628 654 642 656 689 731 742 727 732 720 725 738 748 760 800 821 840 767 759 808 821 799 829 806 950 930 920 872 802 769 755 735 743 756 740 749 737 732 763 755 674 647 705 721 681 656 683 648 688 613 597 569 551 552 560 560 647 706 556 523 502 480 472 463 461 458 455 451 446 442 437 433 428 424 420 416 410 408 403 400 400 404 408 388 388 392 416 408 417 428 443 456 467 475 549 586 589 555 541 540 577 638 709 782 835 846 812 881 853 921 964 1043 1377 1405 1602 1719 1347 1398 1396 1448 1466 1480 1400 1329 1313 1328 1391 1268 1202 1138 1162 1387 1660 1652 1646 1742 2022 2127 1951 1960 2065 2039 1699 1675 1442 1426 1579 1734 1804 1944 1978 2032 1663 1618 1757 1485 1311 1240 1500 1161 1242 1378 2025 2360 2445 2436 2392 2538 2509 2319 1374 2125 2474 2811 2686 2420 2507 1990 1575 1400 1174
241 252 254 274 277 270 254 237 226 224 232 251 256 262 273 272 276 304 312 313 315 323 331 324 328 348 383 380 425 383 394 398 425 439 440 470 502 571 810 593 679 709 720 671 684 636 574 558 518 539 534 519 519 506 481 493 451 536 484 488 518 533 506 492 500 494 500 473 512 472 447 440 491 507 475 492 455 445 441 451 457 460 497 470 471 471 464 470 464 465 449 446 434 426 405 401 390 389 410 383 386 397 406 406 396 398 413 408 397 408 432 413 409 414 424 399 391 389 394 395 425 400 401 404 404 405 408 411 410 414 418 423 433 432 428 460 440 459 443 442 442 445 449 451 457 461 463 470 473 476 486 493 493 493 498 501 503 505 509 507 528 535 540 556 537 539 546 554 563 593 566 576 593 643 644 606 613 626 698 681 670 669 708 751 742 847 885 805 798 770 734 725 721 737 762 784 772 795 807 812 829 804 804 798 845 788 793 798 789 793 787 795 816 860 868 906 909 969 1006 980 1022 942 986 948 890 870 863 921 855 881 932 975 923 879 877 863 872 940 900 926 984 1066 1005 1043 964 960 908 896 892 868 859 847 835 838 820 870 829 843 824 814 830 802 790 794 839 812 863 806 800 774 772 760 777 803 797 806 797 811 828 832 855 887 899 860 836 853 862 832 814 795 798 790 773 778 772 786 769 764 762 758 767 765 772 770 776 784 779 784 816 827 799 845 853 869 841 852 871 861 842 859 864 830 825 806 831 863 909 924 918 911 877 877 932 973 951 987 1004 1006 991 1024 956 905 843 786 808 733 709 687 678 666 663 671 662 629 671 662 665 684 711 741 829 769 787 767 748 791 770 785 765 753 748 870 813 810 785 795 835 917 912 1002 904 848 845 771 742 824 769 763 772 772 764 729 698 671 667 655 689 743 688 666 635 741 616 611 597 594 547 531 517 552 607 618 509 480 471 464 458 464 454 449 447 443 440 437 435 431 428 425 420 414 408 405 400 396 393 388 388 388 390 401 409 420 427 439 445 451 466 460 472 507 539 519 548 562 662 645 689 700 740 718 792 864 925 1044 1302 1529 1484 1601 1101 1031 1185 1247 1223 1234 1178 1181 1249 1231 992 1341 1470 1520 1646 1561 1441 1362 1311 1390 1643 1638 1653 1836 1750 1479 1498 1534 1418 1416 1726 1552 1712 1750 2095 2274 2275 2559 2329 1636 1820 1575 1574 1058 1090 1348 1637 1995 1922 2260 2060 2244 2216 2296 2016 2211 1384 1622 2423 2365 2364 2114 1232 1259 1200 1331
235 240 242 277 282 267 262 246 233 230 231 234 234 237 254 267 306 315 308 317 328 329 331 349 359 380 371 384 417 401 408 424 420 429 437 457 480 564 561 559 641 609 664 634 602 590 622 594 552 620 566 538 504 522 482 477 451 451 454 481 515 494 467 491 467 477 485 450 494 459 426 481 473 472 470 454 438 441 466 483 474 474 468 458 458 447 451 459 454 465 465 441 425 427 416 405 390 382 380 378 376 390 391 395 391 402 398 390 391 395 394 400 395 392 396 386 386 387 394 395 395 415 401 402 406 419 416 433 433 416 418 422 424 432 426 435 444 433 436 439 441 444 447 457 468 466 468 474 477 482 486 490 504 523 507 507 512 512 513 514 516 521 549 570 536 536 556 592 593 593 580 583 586 589 590 595 600 609 629 630 655 681 720 704 810 908 827 781 749 749 730 723 708 738 758 746 788 825 793 794 826 845 837 834 876 882 898 821 805 830 808 804 850 927 924 978 965 918 927 953 991 958 1001 948 923 883 859 846 894 1105 887 883 869 848 840 849 867 917 948 980 997 1062 1060 1062 1041 1053 1112 923 889 885 883 901 910 861 823 800 833 890 918 824 788 779 775 773 779 786 802 788 772 761 754 750 766 760 771 803 820 832 858 829 830 840 846 861 822 827 815 825 795 783 825 820 804 777 763 760 753 792 753 748 757 773 764 760 746 749 751 755 761 771 777 801 816 827 815 851 860 819 848 845 833 850 816 784 829 883 844 871 829 844 818 885 883 893 921 981 972 991 1022 1032 1016 984 903 861 816 801 736 717 699 684 675 664 658 647 666 703 676 710 749 752 798 793 875 840 774 755 759 830 785 752 785 815 802 773 780 801 807 857 843 887 996 925 817 783 758 801 817 801 806 783 780 787 716 732 680 668 718 720 753 681 640 659 665 604 600 563 600 566 525 509 508 529 517 477 464 464 465 464 451 443 443 441 439 435 433 432 426 424 421 422 411 404 401 397 393 388 388 388 389 396 405 413 420 431 453 447 450 447 451 457 517 550 592 653 628 694 689 673 705 733 774 838 920 1046 1140 1202 1136 1002 962 1089 1110 1065 1005 999 1048 1084 1205 1268 1370 870 1033 1139 1159 1151 1187 1187 1240 1211 1218 1156 1092 1247 1396 1387 1223 1285 1563 1732 1756 1804 1547 1537 2038 1982 2089 2169 2248 2089 1699 1726 1882 1367 1264 1421 1425 1436 1758 1927 1862 2523 2119 2073 2445 2173 1706 1561 1419 1207 1368 1453 1382 1466 1766 1431
232 233 239 280 281 276 265 254 241 246 247 238 241 249 276 281 290 304 316 316 323 343 345 361 382 383 382 389 421 425 447 430 466 465 449 496 549 569 584 554 575 580 621 613 604 590 569 564 574 548 602 547 541 529 493 490 472 451 472 471 490 459 487 503 455 446 439 431 427 417 419 422 424 438 465 438 459 460 461 473 488 498 499 484 474 467 472 463 454 455 459 440 438 406 411 414 406 375 372 381 371 371 385 383 382 389 386 392 383 391 392 385 382 382 380 380 384 384 388 392 397 405 406 429 420 420 419 438 439 457 438 427 431 427 429 455 448 437 449 456 461 447 447 451 454 457 470 478 480 486 491 497 511 512 514 514 519 519 523 519 529 535 550 579 549 557 565 591 608 605 603 598 601 606 607 600 606 615 618 621 637 647 670 687 687 702 730 723 751 732 723 703 715 744 730 739 774 794 764 771 819 850 885 849 914 882 909 867 831 862 820 821 838 855 956 971 909 978 971 1062 1111 922 908 952 954 891 876 849 838 824 836 889 874 828 844 899 900 976 995 922 932 1035 1004 1011 1026 1130 1109 964 942 1009 928 954 890 845 808 786 786 822 827 830 774 763 760 757 762 809 859 792 753 749 739 761 767 799 818 796 797 819 834 828 818 814 814 807 799 793 787 796 814 798 790 820 805 804 784 757 763 748 744 751 742 733 740 742 734 734 737 737 737 746 744 756 764 766 761 779 814 788 792 808 799 798 764 754 767 783 782 768 814 862 891 882 922 918 926 925 924 955 960 997 1021 938 879 903 920 824 772 757 713 708 697 681 669 644 643 653 660 672 698 707 778 841 812 854 809 784 750 787 737 740 748 756 760 782 820 810 807 829 852 922 952 927 884 812 770 813 859 832 785 832 854 798 771 705 690 682 720 771 696 665 665 683 638 598 618 636 592 600 581 541 532 550 511 475 465 460 452 445 441 436 439 438 439 437 436 433 431 427 422 418 413 407 403 398 398 389 388 388 388 391 399 410 418 428 429 431 418 440 455 457 455 479 656 782 881 789 754 631 624 623 691 789 811 752 793 822 851 885 860 937 1005 976 922 914 880 939 1072 948 876 850 857 870 1015 949 985 1009 1015 936 938 756 787 875 856 882 1075 1274 1148 1270 1285 1284 1558 1643 1307 1639 1461 1764 1913 1927 1926 1933 1526 1253 1084 1465 1075 1202 1326 1534 1572 1681 1881 1893 2031 2161 2032 1614 2164 1689 2273 1330 1259 1910 2175 1887
226 228 236 264 279 281 269 260 251 254 254 255 249 257 278 286 298 321 323 331 340 356 373 378 400 410 403 390 382 422 484 463 499 510 528 571 523 573 546 538 560 616 566 611 589 540 533 542 534 555 527 531 510 532 609 544 534 465 446 425 465 440 473 439 436 420 420 407 417 436 429 456 456 451 452 440 441 461 454 459 457 465 468 480 486 486 490 467 449 451 446 433 418 411 394 409 406 387 370 367 368 378 378 381 377 373 378 382 378 376 383 386 377 381 377 380 384 386 388 392 389 395 404 406 403 413 425 442 483 498 506 437 435 433 435 433 445 451 495 580 466 452 459 451 456 461 464 477 487 484 486 494 502 504 520 521 542 530 530 527 532 539 546 553 573 592 588 606 627 657 655 618 619 623 625 630 653 635 638 633 633 633 643 706 685 714 691 691 718 702 702 693 708 708 719 740 739 757 745 760 789 833 857 815 833 842 857 892 870 865 841 873 888 852 888 880 922 938 944 977 918 887 871 901 968 940 884 888 853 825 862 852 857 820 818 854 905 863 865 946 907 948 1021 930 1081 1251 1044 914 970 990 1054 880 845 820 797 779 771 768 786 774 755 746 744 744 772 819 855 785 750 732 749 765 766 785 785 817 829 836 857 838 823 831 826 805 799 809 805 771 767 764 775 780 784 749 741 749 746 762 753 763 755 730 725 728 725 721 720 719 729 737 728 733 747 749 747 751 745 761 787 770 765 784 754 747 742 745 741 764 803 799 827 871 966 1062 1005 943 960 947 978 1004 1035 1073 1109 956 931 888 878 806 743 725 702 703 693 666 665 662 657 654 673 721 789 745 754 799 830 912 792 726 777 747 756 805 791 810 852 814 842 886 866 857 936 921 836 843 836 810 829 898 801 846 1033 817 753 723 706 703 735 772 696 673 686 699 646 612 626 714 612 577 563 576 550 548 523 491 455 450 444 438 432 425 421 434 435 432 434 433 428 424 426 420 415 408 402 401 396 392 389 388 388 388 389 393 399 402 420 391 441 429 465 521 461 537 581 600 561 518 468 443 526 623 610 606 629 616 611 672 728 750 807 904 955 935 914 912 992 905 850 861 776 778 813 824 854 962 958 881 894 886 871 715 628 633 645 633 669 713 892 1006 1211 1338 1258 1499 1199 1201 1629 1754 1766 1806 1673 1807 1490 1243 1466 910 1160 1246 1323 1436 1480 1527 1664 1764 1905 2262 1880 1868 2184 1907 1510 1200 958 1689 1449 1850
219 232 242 240 253 266 274 266 257 261 267 273 271 259 303 296 302 309 322 329 345 350 372 392 389 396 419 411 406 432 480 479 496 507 555 571 558 555 525 524 534 560 591 595 556 550 527 544 512 522 509 497 485 552 533 490 486 456 443 435 422 438 488 409 404 402 399 443 453 459 451 459 465 471 488 448 454 453 470 484 482 474 487 502 499 472 464 457 441 443 429 438 430 399 393 380 374 377 362 363 362 374 358 377 375 369 373 366 370 372 373 387 380 377 376 381 387 400 392 381 402 412 406 404 408 426 438 460 499 490 459 461 475 492 454 449 448 448 494 483 463 453 471 455 487 467 471 475 476 494 498 499 493 499 515 536 533 542 553 539 536 546 553 563 598 578 613 637 722 703 723 688 682 641 644 650 671 665 702 666 655 650 650 654 672 688 680 702 679 681 686 690 700 726 715 719 725 732 747 773 773 798 808 795 799 847 845 930 917 902 945 878 856 840 853 938 924 991 904 910 874 852 901 1115 903 904 902 860 868 854 809 798 817 801 801 837 895 848 837 887 928 948 1013 904 1030 1107 937 891 857 1056 1064 898 861 855 780 823 763 750 748 755 729 729 730 749 776 764 749 774 728 719 768 794 783 821 820 797 818 851 914 858 825 838 850 831 797 817 821 797 773 764 755 751 744 767 743 735 737 735 724 726 755 749 756 738 728 714 710 713 713 717 737 736 751 748 736 743 739 748 754 779 746 773 777 731 713 733 749 755 760 769 795 819 863 866 900 941 1020 980 972 977 1013 992 990 1029 898 886 826 790 771 746 733 729 713 687 680 709 676 671 669 685 735 716 731 762 785 769 718 730 747 746 761 772 786 814 844 818 817 849 876 921 897 907 849 910 863 904 837 888 837 842 886 912 798 746 734 727 745 722 698 702 711 681 633 669 670 631 611 587 610 632 607 542 508 480 461 448 437 432 426 421 416 412 426 423 422 423 423 422 419 418 422 406 402 399 398 396 392 389 388 389 388 388 387 386 388 386 386 390 387 393 398 402 422 449 445 427 434 446 459 477 495 517 535 599 620 658 708 805 874 907 959 1031 945 859 908 982 855 920 825 875 905 973 964 872 839 788 805 858 653 614 580 578 580 691 755 777 761 900 924 918 1076 1120 1127 1320 1468 1548 1585 1622 1639 1558 1535 2003 1667 1405 1099 1364 1374 1775 1859 1837 2033 2170 2334 2065 2081 2294 1704 2152 2218 2100 1414 1527 1927 1854
218 231 236 237 241 258 248 265 246 238 231 255 287 275 293 315 317 326 335 335 359 352 370 380 396 409 464 430 414 413 494 503 539 614 609 594 584 567 524 518 585 581 608 585 589 539 514 520 487 492 481 463 459 471 490 493 488 484 470 452 438 447 422 442 429 407 395 451 475 449 457 464 476 469 465 461 462 485 467 491 518 524 514 494 487 488 461 445 430 423 423 420 408 397 406 378 384 367 363 358 357 358 352 351 372 369 369 363 365 365 368 368 373 373 378 376 381 386 419 405 395 402 406 412 422 426 446 475 500 509 502 476 493 485 467 456 453 452 452 460 461 461 481 470 487 478 484 489 484 513 515 523 505 498 502 543 543 547 549 580 555 577 562 575 587 598 608 624 644 675 705 719 727 683 668 659 672 694 716 715 679 667 664 659 659 661 661 668 672 675 687 705 728 758 749 769 786 795 777 779 818 830 811 812 776 806 820 846 829 840 825 874 828 845 898 898 923 933 898 865 887 848 841 923 892 839 918 892 849 857 803 794 787 783 794 901 885 841 806 846 950 948 924 872 858 932 925 852 827 934 900 850 810 802 760 775 802 735 735 731 716 717 717 729 795 729 722 726 714 716 753 760 769 762 818 829 810 825 858 888 815 803 833 810 822 833 801 812 784 787 763 745 738 762 746 758 728 727 760 708 705 712 762 750 754 770 731 705 740 755 784 773 769 745 743 725 753 779 774 779 739 753 725 721 723 741 774 778 781 795 789 810 839 839 907 933 955 941 1067 1000 954 934 995 933 928 883 935 861 878 808 811 776 783 728 702 703 702 692 685 675 677 691 730 742 720 719 770 795 766 781 838 835 823 833 802 836 777 794 809 911 974 924 905 873 869 894 884 880 921 919 920 969 881 787 760 752 751 729 733 714 665 649 644 660 707 670 656 611 580 617 604 533 515 494 464 445 435 426 421 418 414 409 407 401 423 421 416 413 410 407 404 402 403 402 400 394 396 393 391 388 388 389 389 390 389 391 390 391 391 394 398 400 409 411 419 428 434 445 456 470 494 521 560 589 633 661 714 766 872 971 967 1024 956 850 973 959 953 983 1010 1023 1014 974 1027 940 878 864 781 737 641 560 553 589 606 652 696 614 617 641 631 680 778 878 909 868 953 1182 1247 1282 1298 1342 1497 822 1658 1675 1275 1193 1555 1846 1872 1955 2012 2004 1985 1853 2184 1411 1511 1735 2147 1639 1588 1539 2146 2093
212 213 232 232 239 218 222 276 235 218 221 260 277 284 292 312 329 341 340 357 357 378 374 401 420 430 438 466 437 439 470 473 529 547 614 613 579 550 529 504 568 560 611 575 538 537 531 509 476 456 463 441 439 470 535 573 528 514 539 469 433 435 428 417 411 390 428 451 445 484 489 500 502 512 482 480 488 485 496 487 515 518 518 507 480 470 454 438 430 441 423 427 409 396 383 381 394 364 359 356 354 353 353 353 358 366 360 364 367 367 367 367 371 371 379 379 383 385 387 390 391 386 393 410 422 424 427 444 451 464 470 486 524 513 529 484 459 455 457 458 467 470 497 505 496 490 501 510 506 503 508 528 514 510 513 524 554 557 560 562 561 578 571 580 597 625 636 705 656 701 755 767 701 690 685 692 728 705 758 727 693 680 672 668 669 672 678 673 675 681 687 722 705 715 723 735 744 766 794 814 785 786 775 803 776 782 824 797 791 786 790 845 798 838 869 953 921 903 940 878 907 847 816 896 843 820 827 878 874 850 844 805 908 808 768 785 829 885 839 793 840 864 919 818 893 864 913 840 807 858 859 832 788 763 748 731 719 762 724 718 714 702 705 704 695 695 698 728 704 709 733 738 765 789 847 849 849 864 864 815 801 830 842 858 845 812 804 805 819 791 761 752 740 732 732 749 723 718 709 697 699 694 696 699 701 709 728 686 706 732 752 760 760 775 734 718 723 736 750 718 723 721 704 750 781 775 794 798 812 826 835 815 849 865 865 931 885 941 957 945 940 937 952 968 978 898 946 907 935 920 932 851 810 782 746 731 717 710 697 686 685 686 692 703 718 734 755 798 825 812 818 797 840 770 756 778 794 791 829 849 896 920 890 856 845 848 891 918 957 969 975 935 880 825 795 772 770 757 757 702 683 665 654 676 707 661 657 612 585 562 602 546 496 494 468 454 441 431 425 418 411 408 402 400 397 395 416 407 403 398 394 395 396 401 397 396 397 395 388 396 393 389 392 394 394 395 395 397 396 399 401 407 405 410 414 423 433 443 462 471 483 499 522 580 701 795 831 943 1061 1071 928 818 818 918 1006 947 876 734 789 873 922 1107 1068 1095 1088 990 607 595 537 541 513 539 608 612 540 611 531 566 602 675 722 753 795 899 974 962 1053 1036 1111 752 814 884 1248 1378 1422 1351 1681 1362 1563 1378 1475 1587 1683 1767 1459 1844 1611 1519 1574 1772 1354 1681 1378 1763
231 222 215 232 225 225 210 210 216 219 221 255 280 303 305 342 342 349 362 360 375 384 399 418 408 421 461 464 459 481 533 514 550 600 587 571 596 566 531 504 508 607 573 527 526 513 545 520 488 479 475 460 442 456 476 468 506 521 517 453 419 423 414 399 403 401 420 431 466 458 460 484 525 520 513 473 463 466 473 499 527 537 522 489 480 450 440 435 426 439 423 412 391 385 376 375 395 357 352 351 349 350 351 355 355 360 362 364 368 367 367 370 370 372 371 375 376 385 403 391 395 395 396 395 420 424 430 421 431 450 450 459 479 510 522 515 526 460 462 462 466 474 478 496 533 511 553 535 546 524 525 532 540 532 523 541 544 571 569 569 589 591 585 620 619 638 671 748 763 738 756 721 708 733 773 725 742 781 736 709 708 711 700 680 681 681 688 725 687 695 696 697 705 715 727 742 763 829 780 808 792 761 749 807 759 782 780 781 765 760 783 820 808 806 942 876 845 833 852 866 916 807 825 858 824 800 807 838 951 836 816 799 817 777 766 764 780 786 773 794 787 803 792 1047 903 806 839 843 802 825 782 812 782 785 768 725 710 719 711 705 713 691 692 689 686 687 692 695 703 708 717 722 735 759 772 802 844 861 854 799 774 869 846 885 859 835 840 858 808 802 777 760 744 735 721 718 714 710 709 701 709 741 707 681 676 672 682 668 680 688 704 713 740 758 725 697 723 725 724 723 699 712 765 800 823 774 788 799 802 818 840 858 860 873 883 871 879 865 897 866 900 974 1082 1125 1120 1006 1048 968 978 939 922 898 866 788 758 751 730 717 706 699 695 687 700 704 716 748 764 764 778 860 795 779 781 750 751 779 803 849 812 838 808 833 847 842 823 842 879 983 981 976 939 906 923 967 868 819 793 765 764 744 702 685 673 669 687 658 621 599 630 581 544 525 523 480 468 457 449 441 433 426 417 410 404 399 395 395 392 399 396 391 390 389 388 390 392 393 390 388 393 393 396 396 398 397 400 400 396 412 416 420 417 406 401 415 441 422 445 439 478 522 475 503 511 543 651 857 1032 1069 1048 898 865 826 842 951 1055 978 835 737 747 811 854 744 637 609 566 512 484 485 485 488 501 521 562 554 526 505 511 547 599 657 707 697 755 814 872 873 828 723 996 1129 1154 1201 1292 1455 1219 1076 1162 1343 1353 1199 1167 1169 1183 1332 1365 1500 1533 1701 927 1088 965 1403 1116 1564
192 195 203 200 205 204 211 210 234 235 239 273 306 309 314 315 345 354 366 380 381 394 406 425 481 443 480 490 482 511 628 570 520 631 623 590 561 546 537 504 508 512 494 490 527 561 575 569 512 476 452 459 424 416 417 455 497 485 465 436 417 388 406 391 407 400 420 442 459 464 480 478 530 518 489 495 469 453 468 498 506 520 503 471 463 464 452 437 414 413 411 397 385 374 367 370 357 349 344 347 349 347 351 355 357 356 364 364 362 364 366 366 368 369 369 371 373 378 381 384 390 397 402 408 410 414 417 423 431 447 438 457 470 473 480 469 465 465 467 467 471 484 482 487 519 515 541 558 551 569 532 538 574 545 553 555 549 558 574 587 601 612 611 611 643 713 715 727 789 945 785 734 776 876 771 886 811 808 735 727 731 748 716 700 692 692 698 726 737 717 713 724 747 737 729 750 795 809 790 784 783 764 740 756 741 770 818 834 780 745 804 850 821 789 772 810 835 838 815 843 826 838 810 772 788 860 787 869 852 871 877 810 792 808 839 768 743 743 751 737 758 751 814 839 830 835 775 793 763 783 752 779 918 795 761 716 699 690 760 696 688 686 678 678 712 704 688 689 698 702 713 724 737 753 767 786 825 875 840 773 759 780 806 910 888 851 839 828 820 783 770 753 740 735 741 714 733 724 717 728 740 722 697 706 674 673 666 665 669 673 675 695 717 740 716 680 705 734 687 693 714 661 696 781 804 839 775 793 758 772 787 813 847 885 843 810 830 840 842 848 894 927 950 959 978 1018 1046 1042 1037 984 912 917 831 804 784 755 737 727 717 711 701 696 698 705 710 719 733 753 775 804 786 783 720 803 787 758 812 814 805 790 796 804 861 817 822 847 859 887 926 979 1014 1110 1028 948 902 922 819 776 778 723 724 690 725 679 635 637 607 639 636 579 528 499 497 484 473 467 458 448 438 431 423 415 409 405 399 392 388 388 390 390 388 388 388 388 388 388 387 389 388 388 388 388 397 397 400 402 405 404 422 425 429 427 401 405 393 388 392 384 396 405 422 439 464 485 527 632 714 800 817 806 911 861 720 679 874 703 891 799 823 838 742 597 527 484 461 456 458 461 466 473 480 492 569 527 516 488 496 515 555 586 608 661 720 711 711 728 832 765 773 890 907 1007 1014 1076 1110 954 878 935 1129 1416 1253 1202 1160 1343 1473 1603 1390 845 998 1059 1280 1337 1335 1170
188 191 185 196 199 204 203 216 219 250 251 270 299 321 325 313 340 334 359 371 370 386 407 417 436 484 532 501 511 538 657 567 544 557 576 584 595 582 539 507 493 497 474 557 602 567 526 509 480 461 451 434 453 436 414 439 448 421 424 423 403 391 383 407 409 405 418 434 486 465 450 475 483 493 481 448 430 455 468 467 456 451 458 430 435 436 419 406 404 396 392 383 378 369 360 354 352 343 343 346 345 348 351 351 356 359 360 363 360 362 362 363 364 369 373 371 375 388 402 399 411 390 392 395 399 412 415 420 421 435 443 449 455 467 484 488 496 504 481 474 479 491 486 491 501 517 536 557 582 572 542 542 550 571 577 561 563 572 579 581 595 600 605 627 690 679 682 686 806 818 751 780 826 854 806 879 797 778 740 761 776 765 775 727 703 701 707 722 760 748 731 745 770 784 751 744 768 799 774 757 744 735 732 726 747 760 771 763 742 739 785 816 802 769 767 807 805 788 782 827 814 805 782 758 762 766 850 814 835 916 834 818 839 812 771 761 761 751 733 746 725 753 761 761 789 779 796 745 740 790 747 759 754 758 790 702 690 677 692 677 675 673 666 672 686 704 707 688 693 700 705 726 741 756 767 817 938 903 812 761 747 775 784 839 869 852 816 793 784 787 794 777 778 758 766 748 724 734 737 749 748 742 712 734 701 705 693 668 655 651 653 659 692 672 664 672 687 710 677 672 661 666 675 720 766 793 763 761 768 782 820 870 849 836 837 799 865 969 1000 912 892 908 930 941 970 1002 998 1003 955 954 965 947 892 873 804 767 746 736 723 713 704 702 712 726 758 738 741 748 794 740 755 709 757 839 795 783 884 809 792 781 779 798 798 844 899 982 914 951 982 957 1049 1039 991 979 924 1013 905 827 816 750 723 706 670 652 628 636 612 599 599 582 552 513 500 497 487 476 467 455 446 439 427 421 416 408 402 399 392 388 388 388 388 388 388 388 388 388 388 388 388 388 388 388 388 388 388 405 406 413 414 420 418 434 440 448 456 457 423 406 386 388 400 417 424 459 479 491 524 511 539 533 520 520 516 501 501 520 493 475 522 526 556 469 459 446 442 444 446 452 457 460 467 465 473 471 476 476 481 484 514 541 559 597 628 639 645 630 655 669 672 749 731 783 824 849 857 893 845 758 950 1306 1338 1443 1031 1185 1041 744 873 880 969 1108 1246 1361 1472 1444
202 189 192 191 192 200 208 228 232 224 256 281 305 314 329 340 343 344 352 360 383 394 409 416 439 494 538 515 538 572 570 579 574 566 554 576 574 532 522 486 474 485 503 534 537 514 548 517 496 476 481 434 434 443 414 396 412 442 422 407 402 369 400 462 446 437 450 452 486 467 437 420 421 434 423 415 420 411 419 420 417 412 410 408 406 388 390 395 401 388 379 381 383 365 359 347 346 343 341 343 345 346 348 349 356 359 360 361 361 359 359 362 367 367 370 374 386 388 405 420 412 398 419 400 399 403 410 415 426 447 480 462 478 467 464 471 487 490 478 478 492 490 497 505 514 544 539 543 565 576 550 559 570 582 589 606 599 603 609 606 602 608 620 621 631 664 684 719 748 776 789 781 815 899 818 799 805 768 789 821 784 746 724 718 717 717 717 724 748 794 759 774 788 794 772 773 773 785 806 792 756 737 724 718 712 717 721 717 733 768 787 758 763 775 767 775 801 754 754 758 771 780 775 739 744 762 798 819 856 876 886 837 808 788 792 810 802 890 754 719 705 751 759 722 732 736 765 725 726 773 730 705 705 702 712 701 666 662 659 661 661 661 657 667 686 719 762 687 681 718 714 723 740 763 841 859 852 809 763 737 805 934 864 830 909 864 839 793 786 768 757 749 741 733 727 727 735 777 759 736 712 710 734 738 735 722 710 694 678 675 643 640 650 675 653 654 663 680 660 661 641 632 659 667 711 745 712 768 815 787 779 835 837 878 751 856 902 858 841 882 924 893 885 945 973 1001 988 1091 1034 1021 940 871 856 829 808 784 764 736 724 714 704 713 759 756 819 755 779 750 729 703 719 749 747 764 800 761 750 817 776 772 800 819 819 829 845 855 870 897 934 1011 1084 1148 1131 1062 1009 922 871 856 787 747 721 696 670 646 627 612 596 579 564 553 539 530 518 507 494 483 471 462 453 443 435 428 419 413 407 402 400 396 390 390 388 388 388 388 388 388 388 388 388 388 388 388 388 388 388 388 388 388 406 411 417 415 418 429 444 453 466 449 436 404 408 432 430 441 448 457 465 483 481 482 488 486 489 483 477 462 464 464 454 447 439 434 440 435 434 440 443 443 448 449 453 453 458 458 464 465 469 477 490 500 510 532 554 560 555 564 566 566 606 611 638 682 685 714 705 764 745 671 758 1030 1177 1169 1159 764 690 696 788 1065 1210 1165 1338 1295 1499 1515
178 179 188 195 199 206 210 223 240 234 269 287 308 327 372 342 339 351 344 355 396 406 426 459 456 490 504 519 512 540 561 586 615 575 549 534 559 561 543 510 494 504 480 490 482 520 546 516 473 483 501 438 411 424 408 391 395 411 398 394 364 401 400 432 446 466 457 450 432 420 401 396 400 400 399 399 409 403 399 397 393 394 394 394 388 380 386 384 385 404 374 367 362 358 350 341 337 339 340 341 346 347 347 336 355 353 360 357 356 357 359 356 363 368 373 381 382 388 398 424 419 404 436 434 405 406 416 423 428 431 435 443 453 464 478 482 498 516 483 486 487 496 499 503 515 535 529 531 545 559 562 572 575 601 614 633 648 696 681 667 641 620 633 694 640 675 702 757 759 794 803 833 840 844 883 798 787 812 845 776 765 746 731 728 735 795 734 735 742 771 768 776 799 837 811 837 813 823 790 782 792 765 743 737 727 704 716 705 722 757 777 768 750 728 721 719 731 735 749 732 746 741 733 732 772 769 772 791 824 877 968 891 828 814 798 844 824 800 777 737 706 711 714 728 697 699 715 700 733 732 760 711 701 673 668 658 648 648 645 648 648 648 648 650 659 667 668 672 685 695 707 721 734 757 847 812 821 790 830 724 730 745 773 883 801 857 832 821 818 792 763 746 758 726 724 713 709 718 708 710 696 698 710 712 700 698 671 665 656 680 659 632 630 635 640 640 664 666 655 626 634 635 630 645 665 673 725 725 779 800 747 769 736 734 721 802 813 838 869 918 914 874 858 888 933 922 990 976 960 993 995 994 943 905 924 884 841 743 710 702 721 727 756 749 770 757 739 762 728 678 712 745 798 793 864 749 758 757 782 789 870 836 889 857 836 856 942 916 942 1106 952 976 963 954 953 955 908 885 827 821 822 683 661 644 627 609 597 587 576 565 555 542 530 516 503 492 480 469 458 450 441 432 423 416 413 406 404 400 397 395 390 388 388 388 388 388 388 388 388 388 388 388 388 388 388 388 388 388 388 388 388 416 420 458 424 430 450 434 427 444 451 430 425 423 411 438 449 453 453 473 467 482 472 464 465 457 443 444 442 437 430 425 426 428 426 430 433 438 435 435 441 448 451 454 454 453 454 468 475 487 502 499 504 511 522 531 550 545 561 560 565 560 565 619 640 641 624 656 719 775 860 982 880 846 662 671 736 831 1076 1363 1578 1501 1443 1364
165 182 199 199 202 207 216 233 236 245 276 292 317 365 351 350 385 385 372 354 368 393 424 456 455 478 505 477 494 506 523 552 580 587 548 528 518 544 564 532 525 478 452 462 485 508 502 481 447 474 443 447 397 401 384 377 394 392 377 363 398 432 441 475 457 461 438 404 405 404 388 386 384 388 386 390 393 389 387 384 381 380 378 379 376 380 385 385 375 373 365 376 358 347 343 336 337 337 340 341 341 346 348 354 352 354 353 355 355 355 355 357 359 365 393 387 385 388 395 397 405 415 428 449 457 427 425 428 430 437 440 447 458 473 501 533 527 499 487 491 492 503 508 510 512 519 525 532 540 548 559 569 581 596 637 682 750 942 811 722 662 632 643 663 654 671 708 767 838 858 792 844 909 983 864 836 824 836 789 774 753 752 746 760 745 747 794 757 752 756 785 832 823 845 834 819 803 781 831 767 775 778 758 721 704 697 686 702 752 759 758 788 751 726 713 707 704 711 731 730 715 710 714 754 754 786 818 798 835 889 866 906 953 833 788 800 859 917 853 844 723 705 683 670 674 673 678 762 812 757 692 730 677 663 649 639 635 636 633 636 638 657 645 678 670 687 688 677 711 691 693 703 705 725 747 744 733 821 780 719 709 733 736 737 766 786 795 823 811 834 808 758 737 765 759 734 705 694 688 684 678 674 696 697 667 666 645 636 633 630 648 625 621 625 626 637 650 660 613 624 618 623 630 642 648 658 682 731 704 731 704 696 700 724 760 766 786 825 844 883 904 911 916 882 843 907 974 988 924 979 1001 994 968 908 883 882 855 744 754 738 681 722 707 729 708 722 731 676 668 673 692 713 719 772 729 748 767 793 777 845 795 880 821 826 842 864 882 918 917 971 951 918 1006 941 866 883 902 927 878 778 735 697 694 661 641 625 617 607 596 582 568 555 542 526 512 501 490 477 467 457 445 436 424 420 417 416 409 405 404 401 397 392 389 388 389 395 388 389 388 388 388 388 388 388 388 388 388 388 388 388 388 388 390 388 388 433 431 418 408 398 397 404 412 422 435 434 418 424 429 428 430 442 447 436 426 429 430 434 440 437 422 417 418 431 420 422 428 426 428 430 431 437 439 446 445 445 450 452 455 467 480 487 494 498 504 514 520 523 532 531 524 525 526 535 572 599 644 623 713 658 781 873 920 913 785 779 814 992 1058 1118 1493 1494 1376 1367
178 190 206 211 207 211 226 241 251 262 283 301 332 336 343 355 351 366 383 384 395 409 394 420 463 484 494 462 473 519 537 556 550 544 530 519 528 517 538 501 479 469 462 448 440 435 479 483 459 457 432 402 400 393 408 378 373 386 359 388 415 394 387 396 395 391 387 389 392 397 397 383 375 381 399 381 376 375 375 373 370 367 367 370 369 369 359 354 348 347 350 346 350 338 333 334 336 336 337 339 349 350 336 348 349 349 351 351 351 356 357 371 369 370 374 396 405 403 407 404 412 419 448 479 465 449 447 430 439 444 450 458 458 474 500 503 536 508 495 498 500 504 512 515 516 518 522 529 542 558 568 584 589 616 636 701 870 780 714 679 650 653 676 731 673 693 715 781 749 758 779 807 846 939 876 876 878 841 781 776 781 779 802 777 759 760 795 807 783 785 783 808 831 874 842 814 804 762 749 740 732 752 775 727 737 690 677 675 720 706 786 799 783 795 725 700 705 708 754 741 727 697 719 746 776 804 870 822 818 834 885 925 809 819 767 750 759 781 819 825 755 715 694 690 667 656 661 690 770 797 681 656 667 649 649 628 622 621 625 654 692 655 661 651 692 677 665 703 702 721 702 678 701 685 685 695 711 754 723 698 733 706 709 718 725 749 816 784 780 779 787 794 732 744 753 759 713 718 706 713 695 672 686 660 657 650 652 673 661 633 618 619 621 622 617 620 641 637 637 608 602 615 624 629 632 647 708 711 699 668 669 651 700 725 743 707 743 778 758 809 861 892 828 840 825 989 939 954 964 926 971 1054 998 955 892 835 706 699 776 797 715 653 657 702 684 713 707 656 700 718 735 732 753 759 747 760 860 841 816 831 872 919 971 1000 978 915 891 876 1013 954 956 938 864 856 850 824 823 816 873 883 806 761 724 685 649 649 640 623 611 594 577 561 545 531 522 509 498 486 474 462 451 444 435 426 423 417 415 413 408 404 401 397 394 391 397 398 397 394 393 392 391 392 388 388 388 388 388 388 388 388 388 388 388 388 388 388 388 388 388 394 401 408 420 431 460 535 574 469 465 414 434 451 441 419 417 412 413 415 408 413 408 410 413 419 415 413 413 419 418 424 425 427 433 446 440 447 445 449 454 459 473 474 479 479 490 494 498 499 517 513 501 504 545 574 538 530 524 507 541 664 769 772 816 887 891 732 902 1101 1155 1288 1329 1308 1482 1359
186 200 210 214 218 218 231 253 255 267 289 297 321 340 343 375 362 363 370 376 387 410 442 468 479 463 435 454 495 507 513 566 563 564 571 539 499 488 493 469 465 466 459 444 428 417 433 435 423 441 409 394 390 386 371 368 387 390 388 349 350 359 369 372 381 392 401 403 405 395 387 378 368 362 364 383 373 376 367 363 361 362 360 359 354 351 349 345 340 340 334 329 331 331 330 332 333 335 336 340 346 344 347 345 349 349 348 347 345 360 361 368 373 375 373 385 392 398 424 427 431 427 430 433 454 479 461 444 451 451 461 467 468 473 477 485 498 509 504 503 505 510 515 519 523 524 527 540 577 573 591 666 609 632 671 730 960 718 670 682 670 701 723 848 888 706 722 717 732 774 800 829 882 896 909 889 834 798 803 814 805 834 893 808 801 786 788 784 792 828 803 815 858 856 830 802 816 788 748 751 734 710 720 700 683 671 669 667 673 689 713 726 744 773 727 693 678 697 703 699 695 688 704 718 760 753 789 846 859 855 824 825 800 776 766 778 732 727 732 796 788 773 747 733 677 642 645 662 684 692 696 667 630 624 621 613 609 627 665 689 681 677 676 634 655 650 664 673 668 699 705 666 661 661 664 680 709 757 751 686 677 684 688 698 710 721 734 751 792 779 759 729 714 761 767 743 737 743 738 707 712 676 664 690 690 653 643 648 636 623 626 614 612 604 606 606 598 624 605 598 593 604 612 613 618 652 680 738 681 679 639 650 661 680 702 683 689 698 702 709 713 722 703 696 756 798 802 847 925 919 842 878 831 799 846 821 768 672 709 761 737 653 637 667 669 670 646 677 688 717 771 815 779 775 777 764 783 838 856 852 847 874 887 937 950 955 897 925 1018 1015 1098 1029 901 921 869 848 812 840 784 821 908 844 831 723 682 669 657 641 620 603 581 568 560 551 544 529 517 503 488 473 464 455 447 438 430 426 422 419 412 409 404 401 404 403 409 409 407 407 404 401 401 394 388 388 388 388 388 388 388 388 388 388 388 388 388 388 388 388 388 388 399 399 395 400 427 411 414 412 413 414 398 405 405 406 408 407 403 407 407 404 409 410 410 412 410 414 415 419 419 423 424 425 425 427 426 430 444 446 447 447 450 454 462 470 473 477 480 483 482 492 480 486 496 571 528 506 506 497 494 587 683 724 858 949 962 802 825 1196 1469 1432 1414 1418 1372 1421
193 201 214 219 227 234 233 241 258 266 294 297 311 330 351 354 361 374 384 389 399 416 437 469 469 440 447 450 473 492 508 543 589 594 573 565 521 491 474 489 471 479 444 431 413 402 396 415 425 467 431 415 420 418 407 402 424 390 379 368 359 386 406 406 417 415 407 416 410 404 395 376 353 355 350 360 381 370 357 352 354 355 366 359 368 368 357 347 339 337 340 328 328 327 329 331 331 332 335 343 343 341 344 344 346 344 346 348 343 356 356 359 360 363 380 383 387 399 413 422 454 476 489 450 450 473 474 458 467 482 480 480 499 495 497 494 533 527 540 528 510 514 521 525 529 531 534 540 593 615 632 683 649 648 749 712 817 704 696 729 698 888 822 763 797 788 758 875 771 776 774 794 842 865 857 850 841 830 958 849 850 851 854 815 811 796 888 864 820 836 835 857 812 815 845 845 787 751 777 750 720 727 699 697 706 678 668 657 652 658 671 681 741 728 717 693 672 665 690 670 671 689 716 735 759 770 777 803 863 808 814 827 826 786 778 779 776 746 697 696 714 701 695 669 651 632 630 634 637 645 648 629 613 608 601 602 607 625 645 668 695 665 648 623 634 618 631 661 659 657 675 664 640 641 647 665 700 718 705 680 665 673 710 727 743 734 740 787 745 763 772 707 746 788 785 765 721 749 753 748 725 713 693 671 669 668 652 660 646 646 659 642 626 618 614 613 590 589 584 586 586 590 595 598 610 637 678 671 680 664 632 630 640 653 678 660 651 662 671 689 670 679 650 692 759 780 764 768 791 812 799 809 807 745 772 711 660 681 709 673 649 677 653 627 652 638 665 716 703 758 802 894 804 780 795 805 775 818 901 990 888 927 905 1024 1028 938 906 949 1026 1275 1217 1028 930 931 948 866 827 831 816 772 766 772 824 777 702 692 675 652 630 613 603 596 589 575 563 549 532 516 503 489 474 467 456 448 443 437 431 431 421 410 411 408 410 416 416 417 420 414 415 413 409 407 400 398 391 388 388 388 388 388 388 388 388 388 388 388 388 388 388 388 388 388 388 388 402 436 407 409 410 408 408 404 399 401 399 416 430 470 548 427 421 431 450 428 434 428 428 442 437 437 436 440 453 470 508 434 430 425 442 444 455 448 450 456 461 460 460 460 459 454 463 462 464 469 474 482 475 476 480 484 492 503 574 805 1176 974 833 917 1131 1650 1604 1449 1340 1363
200 206 216 222 231 238 242 268 263 270 281 297 313 311 345 356 348 373 386 391 403 394 432 402 404 433 425 471 474 508 525 551 583 572 556 553 539 521 471 467 437 427 429 450 429 437 402 386 438 468 457 423 402 409 408 403 385 366 376 391 346 397 393 388 413 407 387 393 393 368 367 341 340 345 342 340 337 341 357 347 354 379 402 415 402 405 371 369 374 349 335 327 325 326 327 328 329 338 338 337 342 341 339 342 343 343 343 340 340 341 344 353 357 362 370 394 394 399 411 421 447 446 468 509 478 466 475 491 500 508 523 499 521 562 541 516 535 533 534 532 516 521 522 528 534 537 541 551 568 583 603 646 685 719 728 794 689 717 872 801 768 768 892 789 962 922 770 754 783 804 797 823 818 847 899 918 849 852 937 971 958 901 892 859 839 809 825 856 868 868 851 851 811 786 770 774 760 753 725 719 705 693 713 678 673 683 674 673 666 646 638 650 682 682 697 695 694 652 662 659 657 692 693 710 728 755 821 841 822 806 835 780 810 836 874 800 846 807 703 682 666 665 658 641 631 619 617 615 647 612 601 593 592 592 591 597 608 647 652 674 677 641 631 613 600 623 642 628 631 631 646 663 627 626 627 641 659 688 659 652 664 679 702 724 765 763 733 713 699 721 698 692 720 764 765 732 702 710 715 704 687 676 665 658 655 684 705 706 676 695 662 667 664 662 633 610 624 634 618 579 573 576 578 581 591 621 645 641 687 641 610 609 610 619 631 625 646 670 699 744 761 719 663 678 704 690 718 740 684 702 721 688 704 741 689 606 614 637 613 607 699 721 719 720 657 665 664 686 719 767 809 793 848 819 794 814 797 803 829 857 841 871 894 909 1066 960 924 960 1080 1312 1221 1031 981 971 949 913 911 900 862 806 771 749 736 770 842 777 740 702 675 651 645 632 620 604 586 564 548 529 513 500 488 477 469 458 455 453 442 434 429 421 418 417 420 422 428 429 430 430 430 433 426 421 415 408 401 396 388 388 388 388 388 388 388 388 388 388 388 388 388 388 388 388 388 389 390 391 395 406 405 396 396 394 398 397 409 424 435 474 509 495 455 464 465 456 444 486 472 447 444 445 467 485 482 485 474 482 520 534 441 433 438 440 439 443 442 446 446 446 444 443 441 453 457 545 545 553 490 478 479 485 489 530 519 528 597 715 576 843 1028 1193 1263 1332 1660 1658
