ncols        540
nrows        45
xllcorner    45.0001220703
yllcorner    56.1667887523
cellsize     0.083333333000
NODATA_value -32768
163 137 154 175 176 154 166 174 177 175 165 179 204 228 202 160 197 189 199 126 172 176 188 212 176 191 173 177 184 134 183 188 172 163 177 198 181 172 167 153 146 183 180 184 173 170 168 180 161 183 170 178 220 199 179 217 239 231 238 221 221 225 211 212 221 211 233 215 219 227 223 226 177 225 210 151 160 172 182 206 244 230 194 213 200 189 187 176 199 198 199 199 198 212 161 153 151 169 184 191 218 201 237 244 253 224 190 172 186 178 170 168 204 186 184 173 168 171 173 187 151 142 170 202 164 182 169 190 175 152 141 170 153 170 172 139 173 145 114 183 155 190 158 138 183 191 184 146 167 178 203 260 319 302 254 414 455 474 473 518 533 593 589 656 587 502 448 494 567 620 442 363 432 460 322 264 229 230 279 248 236 240 224 239 182 163 146 122 86 139 120 111 97 96 95 91 98 109 86 92 92 70 85 66 74 81 82 79 84 70 76 68 71 69 76 80 78 73 74 59 58 80 92 86 86 88 88 79 66 68 66 61 72 82 80 52 50 37 43 49 54 61 79 80 72 74 67 69 63 58 48 40 44 43 45 51 51 52 56 54 56 54 49 40 36 34 43 37 40 42 45 42 47 42 46 44 45 46 42 47 41 42 40 37 35 31 36 34 37 36 37 34 38 38 38 45 35 32 36 24 95 87 87 90 94 92 93 90 92 90 89 73 58 57 70 72 65 71 70 68 65 57 69 61 63 67 69 68 77 74 86 87 86 77 85 85 82 76 60 44 62 67 85 86 91 68 90 88 86 87 86 67 67 88 87 86 97 94 94 97 95 85 91 85 86 60 62 82 79 87 80 81 84 92 102 104 104 95 77 92 100 96 102 102 93 94 68 97 93 87 88 75 97 94 72 59 53 90 87 73 89 70 84 91 45 45 43 41 47 47 44 48 48 48 48 48 52 55 54 64 60 62 71 67 72 64 63 60 65 68 76 67 60 74 61 66 61 65 61 72 80 76 76 63 61 67 66 71 93 101 125 133 121 121 130 128 122 138 136 138 136 133 133 131 139 143 143 143 136 137 128 131 132 137 143 149 149 152 153 152 156 155 157 155 172 168 162 163 157 162 158 163 166 156 157 158 156 157 149 149 158 149 150 151 156 159 162 171 162 159 166 162 170 170 171 174 153 151 152 149 151 154 151 138 144 154 144 130 114 109 100 92 109 95 137 127 128 123 121 135
194 178 156 126 128 117 183 190 185 167 136 201 248 246 236 201 185 209 198 172 176 173 207 213 231 202 175 182 178 147 163 181 183 175 166 185 212 210 187 192 190 189 216 212 181 187 187 190 189 198 182 178 201 217 205 201 215 198 226 210 207 236 216 215 194 187 214 199 184 184 201 168 150 150 157 179 178 163 193 188 192 204 181 190 197 175 188 174 187 188 200 219 211 153 153 150 161 171 184 191 218 208 196 212 230 202 236 207 194 191 186 208 189 187 197 178 179 174 159 172 140 138 192 190 224 189 219 170 148 140 158 194 167 152 155 163 165 171 111 179 178 131 147 152 142 165 224 177 168 180 234 243 266 275 254 392 403 440 450 573 478 476 526 608 689 457 456 518 668 491 371 362 423 284 278 234 225 252 223 209 221 207 205 185 174 115 104 97 84 142 145 128 117 106 95 79 82 77 91 99 88 84 69 68 66 92 89 71 69 74 69 76 79 73 93 91 85 73 76 70 73 82 82 83 100 92 86 84 84 83 67 66 77 68 77 74 89 50 62 37 40 38 43 66 44 60 55 57 73 56 49 40 43 42 39 43 45 44 45 50 53 50 54 56 42 40 35 33 33 38 40 43 44 42 42 37 41 42 45 38 37 47 39 36 36 42 36 36 36 39 39 36 38 38 47 34 39 31 29 69 67 68 75 88 93 84 93 94 86 74 59 51 61 66 76 74 75 66 69 74 72 61 75 72 75 79 76 77 85 85 91 86 86 88 86 88 87 79 60 60 54 60 65 90 88 86 91 93 86 93 93 84 70 67 93 93 98 97 91 94 83 96 92 90 77 51 56 76 88 93 82 90 94 96 92 97 88 95 85 102 109 124 107 100 91 96 85 100 88 103 85 98 73 60 76 61 73 82 90 92 89 88 55 45 81 85 43 43 41 42 36 41 45 46 47 47 47 48 51 53 54 58 61 68 65 65 79 78 78 71 67 59 60 63 72 63 65 69 68 75 82 70 74 65 71 70 93 106 96 105 124 126 118 115 115 110 123 137 138 144 142 134 123 125 132 137 124 113 120 126 123 133 139 142 149 152 150 153 143 152 159 158 154 154 165 173 162 156 154 149 147 149 154 152 157 154 150 154 155 146 140 143 145 151 159 166 178 170 167 171 168 169 166 161 153 151 144 147 141 139 151 140 137 132 114 98 96 94 103 86 89 102 120 135 129 112 126 125 135 109
173 199 186 159 161 168 156 164 179 200 194 182 225 223 218 196 214 211 176 199 223 219 207 224 211 219 222 209 202 169 170 130 170 183 173 131 166 150 153 171 193 200 199 197 229 205 192 219 203 216 216 215 209 183 183 183 166 185 204 201 194 193 209 195 172 182 170 174 142 144 164 164 199 175 162 207 200 188 222 193 190 203 183 195 177 169 166 198 167 205 210 159 155 151 166 180 183 203 208 190 221 224 249 250 252 228 215 229 217 182 182 186 219 179 157 179 166 174 162 142 164 155 173 189 223 179 173 157 160 169 176 163 140 139 156 160 121 172 156 113 114 127 124 131 166 195 191 156 165 156 192 211 271 252 292 345 418 413 465 567 384 475 488 625 401 431 662 699 589 557 553 441 358 427 264 250 262 198 214 216 203 233 237 196 143 142 181 131 81 125 109 130 137 142 151 144 140 105 98 106 104 100 93 101 88 75 97 94 72 74 71 70 78 76 71 75 74 70 70 76 69 78 77 90 85 86 87 88 83 87 81 80 76 77 75 59 62 88 77 54 57 75 83 79 57 88 61 70 38 38 38 39 42 55 53 35 37 43 35 42 47 47 41 40 32 34 38 38 33 36 38 31 35 34 36 37 34 37 36 36 31 31 33 35 34 37 36 41 41 39 37 35 36 38 89 65 69 70 76 63 63 52 52 56 48 49 54 53 60 56 54 54 58 57 62 73 74 79 81 83 86 84 85 86 85 91 88 92 98 98 94 91 90 95 87 89 84 86 59 61 61 60 85 90 90 75 90 93 90 93 89 93 97 75 96 93 91 94 93 92 94 93 88 91 95 92 80 67 81 87 86 77 72 71 87 85 86 92 97 100 110 111 102 88 78 110 105 103 83 103 112 102 91 91 80 66 83 97 72 95 83 90 88 85 91 86 90 93 42 44 43 42 42 41 43 46 46 46 49 45 44 48 56 61 59 62 52 59 56 69 62 66 68 81 84 92 89 88 98 95 91 92 104 108 104 84 87 83 88 101 123 127 133 129 114 99 119 135 135 137 126 116 113 114 115 112 113 114 121 125 137 141 148 152 159 142 150 140 145 147 145 140 142 146 158 153 152 157 150 144 143 147 148 141 146 152 148 148 127 136 140 141 159 159 165 171 172 171 168 163 162 159 155 153 149 145 159 155 143 153 153 146 134 155 154 152 146 139 119 129 123 120 129 123 125 119 119 107 84 90
186 197 171 150 203 205 139 172 141 179 213 204 198 204 193 223 219 174 160 177 200 217 223 225 231 235 243 231 196 171 171 162 174 204 186 187 187 188 188 185 154 191 227 235 232 241 253 230 225 180 199 213 150 167 198 201 177 201 196 202 181 203 206 196 174 165 152 148 169 154 174 203 222 217 200 210 206 218 216 196 213 183 183 231 184 190 207 194 190 209 202 161 156 166 179 173 178 196 199 218 233 235 198 231 212 211 209 196 190 212 181 155 173 167 165 152 147 142 142 141 155 162 195 195 185 194 194 223 210 192 155 179 168 170 151 136 175 163 148 154 105 153 184 195 167 191 196 185 164 186 208 239 225 278 333 262 289 333 375 478 466 615 546 501 378 431 593 513 608 958 1241 1102 763 285 268 270 306 240 226 206 232 218 176 169 139 115 189 120 90 86 130 103 137 138 141 143 138 136 129 138 107 106 98 100 94 64 58 69 68 76 80 73 135 103 74 73 69 75 56 70 73 82 76 86 92 84 85 86 83 79 87 77 77 84 77 59 72 79 66 50 64 65 59 64 76 52 40 44 56 63 37 38 49 47 48 39 35 36 48 41 46 48 44 38 35 34 34 35 34 35 35 34 32 31 32 33 33 35 32 34 35 37 38 40 44 42 44 37 39 36 34 31 36 36 54 54 48 64 53 48 48 62 55 60 57 48 51 57 53 51 60 62 64 68 60 65 69 80 84 90 93 90 88 87 91 93 90 94 94 92 92 91 89 81 88 90 89 85 57 65 61 64 90 90 89 74 91 94 97 93 92 95 97 95 98 97 91 97 97 99 92 91 91 94 95 90 72 68 69 62 65 63 79 81 84 92 87 95 97 100 102 104 100 88 105 106 103 102 104 100 118 108 105 87 105 81 78 98 93 95 97 96 90 59 91 92 80 74 91 44 41 42 42 43 44 43 46 51 45 46 45 44 49 56 51 59 57 52 51 62 68 69 72 76 88 88 96 101 94 96 95 94 99 106 109 105 96 109 103 112 133 137 124 131 108 108 125 124 127 134 123 99 108 103 106 115 125 126 131 133 135 142 148 149 146 143 142 133 126 149 146 141 139 134 149 135 138 145 146 152 135 138 138 140 143 146 140 129 136 133 145 148 161 163 166 166 164 161 159 159 158 155 164 165 169 154 166 169 167 172 140 166 140 178 180 151 147 134 119 130 131 135 133 130 120 109 103 100 103 98
207 181 157 204 181 150 208 214 220 255 212 228 193 210 196 220 205 203 220 203 173 194 158 181 204 199 217 184 180 196 165 175 189 181 140 182 219 206 212 222 203 225 230 226 181 204 219 239 249 219 220 202 195 177 191 177 205 221 216 197 166 194 169 168 172 195 163 169 170 203 242 212 235 224 185 188 226 196 215 209 213 200 202 201 211 211 186 199 169 184 155 156 175 165 163 184 192 219 213 221 245 214 232 202 194 184 168 177 160 193 158 157 169 208 158 139 146 144 169 152 172 184 195 192 198 219 225 213 234 185 195 181 178 178 169 149 151 184 170 104 107 179 155 205 205 188 228 223 160 156 246 216 243 300 204 444 540 372 318 401 384 565 548 436 377 407 409 549 805 1456 447 362 590 691 257 227 214 229 260 207 215 211 195 153 138 161 153 120 117 80 76 116 122 118 123 124 109 118 130 133 131 119 87 80 90 69 65 60 64 75 69 75 109 109 78 71 72 72 68 69 69 95 93 94 96 95 85 82 85 80 86 76 87 65 78 88 80 71 60 88 61 72 82 69 65 64 58 87 63 75 76 74 63 37 55 47 53 38 49 40 36 52 54 48 52 35 36 56 37 38 36 41 41 48 44 43 44 41 46 45 43 51 41 43 41 39 36 38 43 38 43 40 43 57 45 62 54 63 40 49 48 43 47 45 38 58 50 53 38 60 53 53 86 92 91 90 94 77 72 68 71 87 91 100 95 91 92 98 98 99 96 90 93 91 91 88 93 90 68 61 61 65 93 94 94 96 95 98 97 103 101 102 95 95 97 100 97 95 96 97 93 92 73 70 68 86 88 86 87 92 83 88 91 89 93 91 92 93 93 96 95 98 99 101 95 98 96 98 96 91 96 99 100 96 96 102 101 106 107 95 96 99 97 90 91 96 84 73 73 101 86 44 48 43 39 46 46 48 49 47 43 47 44 49 51 57 56 66 62 65 67 70 76 78 85 85 85 84 93 105 96 113 108 105 96 101 106 117 110 121 120 123 113 117 110 98 112 114 112 90 100 96 101 108 116 119 136 132 142 147 145 137 144 144 143 147 134 123 122 130 136 141 134 117 134 134 136 137 123 131 127 138 132 150 151 147 127 119 139 144 152 155 154 156 154 153 152 151 159 159 163 180 180 188 183 173 169 167 159 153 179 173 170 137 133 128 128 130 129 138 128 129 114 101 103 108 116 116 122 117
203 202 183 215 179 135 170 179 198 197 209 202 161 197 206 223 211 190 209 176 173 152 177 180 174 210 191 186 190 172 142 187 184 172 147 181 214 185 209 216 166 216 215 211 215 189 188 208 226 175 223 223 198 179 173 149 201 205 216 205 201 190 187 183 196 187 184 187 144 192 215 195 197 188 170 178 180 205 180 200 164 209 206 185 184 177 199 198 185 166 164 161 163 161 169 209 228 221 225 242 244 252 265 274 236 209 214 223 237 197 162 172 161 155 156 187 169 161 174 168 154 193 197 185 196 205 190 224 232 195 193 146 151 184 156 158 112 137 197 104 116 117 149 183 210 203 209 204 145 147 158 164 261 326 280 243 308 327 415 498 508 387 387 464 389 377 424 413 501 451 405 959 850 310 252 214 237 211 220 210 222 171 196 150 128 139 116 113 118 90 73 108 106 116 97 120 99 113 110 118 111 126 98 94 88 75 64 63 71 132 103 92 110 100 94 102 71 76 71 66 68 87 89 86 85 82 78 82 80 77 80 82 85 79 79 83 83 85 77 89 86 91 71 80 76 71 80 82 81 63 80 78 76 63 49 46 47 47 59 60 37 48 36 56 43 47 52 45 45 44 52 43 43 47 46 45 46 42 43 42 55 42 42 43 40 38 40 37 36 55 50 44 57 56 60 61 60 63 67 50 52 69 55 53 55 59 51 49 53 53 52 60 61 83 96 96 96 91 80 86 96 87 101 93 91 95 94 95 85 93 95 95 94 92 92 93 94 84 78 58 62 60 68 64 72 86 97 98 99 102 100 98 101 100 100 95 100 96 91 93 90 88 76 98 95 97 94 91 99 104 100 105 98 96 91 91 89 86 87 91 89 92 94 92 91 90 96 100 92 99 98 92 92 92 96 94 92 97 94 98 100 115 96 93 82 83 96 90 99 81 54 82 73 84 69 43 46 43 48 45 48 54 44 48 66 57 59 55 54 59 57 63 64 80 70 77 80 94 93 89 104 93 94 96 97 98 95 104 102 110 118 122 117 117 105 99 89 89 96 93 91 100 104 119 120 133 140 141 145 145 139 137 133 135 153 141 138 129 129 114 128 124 120 120 134 129 119 129 132 132 136 126 127 148 143 146 123 134 140 145 151 151 147 144 143 152 150 152 160 171 174 182 174 177 174 163 173 175 161 148 164 157 148 144 133 132 133 123 130 133 127 120 98 98 111 123 114 114 113 125
176 196 173 195 191 174 159 148 150 158 188 164 201 191 194 188 190 185 183 186 140 177 173 177 206 211 202 214 185 210 217 214 198 193 201 136 185 170 217 213 157 138 181 201 202 217 213 185 197 158 213 162 198 216 215 201 188 140 198 221 184 196 180 226 215 185 198 193 203 136 169 197 224 174 177 179 156 159 140 153 159 168 157 162 159 156 158 166 171 169 195 199 194 173 218 178 197 239 260 254 227 237 258 294 226 216 193 200 196 230 205 203 173 182 203 189 191 200 191 170 204 178 201 192 164 210 198 169 181 145 144 137 160 159 160 158 146 158 104 128 104 143 157 158 203 154 210 141 174 187 265 285 226 251 293 481 395 458 379 527 550 355 445 657 600 617 518 602 552 484 514 618 630 352 372 214 209 215 241 213 244 199 179 144 183 168 127 103 108 114 105 91 74 79 109 114 104 101 99 95 109 92 84 78 74 67 70 62 66 81 144 114 126 132 93 120 80 96 68 57 69 73 68 94 86 83 82 80 82 79 80 83 94 94 91 87 91 90 91 92 92 92 91 101 92 93 83 87 89 92 77 78 68 68 67 56 52 53 44 48 47 48 49 47 46 46 47 48 47 54 49 46 43 46 45 46 43 44 43 45 44 39 43 56 39 43 43 41 41 49 68 72 72 67 94 93 98 92 95 68 59 90 99 98 92 98 97 95 90 85 69 68 64 59 62 98 97 94 95 95 88 95 81 94 90 93 94 94 97 94 94 99 95 95 93 87 83 71 66 64 86 73 66 67 66 63 65 66 72 85 75 90 95 97 88 86 90 89 94 90 90 97 95 102 107 96 95 97 96 97 95 96 95 96 90 87 79 84 79 80 76 89 84 92 94 91 92 76 90 95 88 87 90 83 86 77 77 80 74 82 80 71 71 73 77 77 81 78 81 82 81 84 86 88 89 97 65 93 47 48 48 45 41 46 46 46 49 47 48 63 57 57 72 56 62 65 71 72 71 77 86 84 98 84 89 100 97 100 99 103 111 106 93 87 90 108 108 112 109 100 103 112 117 124 132 132 130 131 138 140 137 138 137 120 138 137 137 138 142 119 108 103 126 130 114 126 136 138 134 130 119 120 125 141 141 125 129 120 132 129 140 135 133 136 151 157 172 160 163 158 168 171 159 154 162 159 158 142 141 150 159 143 154 135 126 134 121 116 110 122 112 114 124 115 133 121 129 173 144 174
196 204 207 212 197 179 212 227 229 214 209 189 223 208 221 174 188 150 175 172 137 174 183 184 198 184 174 213 201 214 211 216 204 193 185 124 173 163 170 194 126 147 225 213 215 181 148 185 168 167 174 201 201 190 194 186 163 150 178 187 217 167 228 195 227 202 172 174 177 142 139 170 143 139 142 186 153 184 178 203 208 203 188 213 207 189 158 206 208 202 229 228 236 235 231 176 180 261 261 304 257 283 301 268 250 280 298 228 209 187 192 203 211 199 222 215 164 167 192 180 169 145 197 185 231 193 198 190 219 174 171 183 186 177 193 104 109 109 128 176 119 142 170 194 160 184 137 207 149 174 252 285 283 432 280 319 406 461 493 563 551 325 380 440 566 638 508 695 557 549 569 344 392 221 204 277 280 247 215 218 231 232 184 117 124 103 113 148 149 132 133 120 124 124 127 68 118 91 82 83 89 93 80 90 70 64 71 63 78 76 120 110 126 138 89 122 80 85 89 81 79 58 75 87 83 85 79 80 82 82 83 83 74 86 79 87 82 71 74 69 74 77 87 81 79 86 87 88 88 90 89 80 73 63 60 57 56 56 45 45 56 50 45 46 46 43 48 44 46 48 49 46 49 46 46 46 45 45 44 46 43 45 41 40 40 31 53 93 98 83 89 91 86 95 91 102 96 96 97 94 88 92 96 93 98 89 89 87 86 79 78 72 69 71 71 58 78 97 90 93 96 93 91 95 92 95 96 96 96 97 97 91 92 85 96 98 95 115 108 98 104 107 92 92 87 72 59 54 65 71 83 85 82 80 67 74 87 89 91 68 74 71 72 77 82 93 95 99 97 99 101 98 101 101 98 98 99 97 95 93 93 87 87 80 71 78 83 85 80 75 66 64 69 67 62 61 59 59 56 65 60 64 66 68 68 72 72 72 81 70 76 75 71 74 78 94 90 92 92 94 83 86 84 44 46 48 53 48 47 48 48 48 46 54 56 57 65 59 76 76 70 76 77 73 85 92 92 94 94 96 86 82 93 97 110 113 114 104 105 102 104 113 118 126 129 126 117 117 129 136 143 140 134 112 125 125 123 124 124 122 107 106 110 112 133 131 132 133 139 129 133 116 129 122 118 110 111 117 115 115 126 139 143 154 152 153 151 151 153 148 158 164 146 141 144 147 148 153 134 128 136 123 124 124 115 113 115 110 112 110 115 112 142 152 132 111 137 149 165 168
177 186 199 215 230 200 196 203 215 192 216 209 180 211 215 196 204 187 176 183 130 181 143 182 154 187 187 186 183 198 228 189 198 162 173 156 140 122 155 140 194 193 197 233 232 174 156 142 149 147 161 170 187 185 204 205 179 161 172 142 161 173 171 182 171 182 193 181 161 142 160 181 150 157 148 157 152 159 180 211 193 220 186 224 193 187 158 160 221 213 240 240 202 212 250 218 190 253 256 314 267 313 233 238 256 243 309 241 250 232 219 194 210 203 190 197 184 176 146 152 182 197 194 213 199 203 172 188 231 178 145 191 168 168 162 111 114 118 133 183 129 179 189 146 230 124 157 173 194 140 253 228 409 404 368 391 321 465 423 460 449 299 427 560 611 615 491 553 682 574 342 360 270 219 225 218 237 256 196 214 235 193 143 133 170 110 108 124 133 138 131 129 129 128 121 130 67 66 89 82 102 99 97 67 89 74 74 81 73 76 136 146 100 123 83 75 83 94 123 94 94 91 80 66 76 80 79 79 80 85 72 69 72 66 70 74 80 80 76 84 85 79 89 83 87 81 88 84 91 88 92 84 77 60 58 56 55 53 49 49 54 44 44 46 50 45 47 46 47 48 48 47 46 46 45 46 45 44 45 43 44 43 38 40 46 29 39 46 93 90 75 97 98 95 98 98 83 103 99 59 80 81 91 87 88 88 88 89 84 84 79 75 74 73 64 66 67 96 93 101 93 97 97 96 96 100 102 117 108 99 95 89 93 91 102 93 92 89 88 89 92 93 90 90 71 72 66 66 65 62 70 67 67 79 87 84 68 72 69 70 68 69 94 74 80 100 100 103 104 99 98 97 100 90 97 97 95 91 91 88 88 83 79 75 78 63 78 70 76 64 66 60 62 60 57 66 65 70 68 52 71 55 61 60 52 60 73 67 74 78 72 72 69 73 75 79 85 87 86 96 93 95 84 81 79 49 48 42 45 47 50 48 49 48 64 51 58 57 63 67 66 69 77 77 79 89 94 86 79 83 86 79 90 94 102 108 110 104 100 101 108 115 114 123 138 137 128 124 116 120 131 132 103 115 119 121 118 116 117 112 105 107 109 127 116 137 136 137 136 139 124 110 111 108 107 113 117 118 135 141 153 159 160 147 158 154 161 142 154 141 136 144 152 137 138 137 147 144 125 139 127 117 113 114 119 114 114 113 113 117 155 145 150 124 162 145 126 174 166 185
177 158 179 196 196 201 173 136 229 211 181 198 185 171 161 139 137 157 173 198 154 144 182 172 177 151 170 185 202 203 217 159 212 153 141 189 173 166 119 131 178 194 209 218 179 172 159 158 193 165 151 163 135 141 149 150 188 201 177 179 170 190 161 164 167 144 149 150 148 125 153 152 145 172 163 195 182 156 155 154 179 187 181 214 214 207 179 172 187 222 226 229 233 264 261 260 253 199 197 220 236 227 234 219 250 270 300 227 223 238 241 210 183 157 143 184 172 152 125 126 147 181 159 183 172 170 179 186 218 213 176 144 111 159 104 111 120 122 164 171 166 145 139 160 143 218 160 166 185 153 214 289 383 375 505 386 378 428 405 427 245 391 528 603 538 442 436 422 420 458 369 327 328 329 255 241 255 221 188 166 219 216 139 138 131 131 120 110 111 137 139 136 106 124 112 119 76 96 122 109 64 66 70 86 82 82 80 76 77 79 135 137 138 137 136 141 102 115 118 111 114 98 92 77 92 60 77 74 80 74 78 68 84 82 76 78 78 80 83 82 84 84 86 87 90 91 87 90 91 91 94 91 91 84 72 59 57 59 54 54 48 47 48 45 48 48 46 45 47 49 48 46 49 47 45 44 42 44 48 45 44 45 42 43 51 38 34 41 44 89 100 95 88 70 75 68 75 79 78 85 84 88 89 90 92 92 91 95 93 93 82 83 79 80 77 62 67 85 81 91 91 93 94 94 95 89 92 92 92 93 95 92 91 87 87 87 89 90 90 88 84 90 82 89 88 90 90 82 92 66 67 69 65 66 69 66 71 94 100 100 102 101 99 95 82 90 102 105 102 100 96 98 97 99 97 92 81 77 79 83 76 68 65 109 109 95 86 87 89 92 92 85 95 95 95 100 96 96 95 91 88 81 78 72 76 71 56 55 53 59 59 70 56 67 63 64 66 69 64 68 73 75 88 82 82 70 61 52 49 49 42 51 46 47 48 42 49 54 53 60 60 64 68 64 67 63 63 70 66 68 77 79 83 101 100 93 91 90 93 115 119 121 126 141 133 128 132 125 115 99 108 120 112 108 107 110 113 124 133 128 100 106 107 112 128 130 122 121 126 123 120 106 107 107 121 130 148 154 155 152 145 142 143 140 130 128 128 123 125 131 126 120 123 129 117 115 111 111 116 111 116 115 117 119 156 141 146 145 152 133 158 159 141 127 159 168 163 142 153 134
192 162 177 174 220 203 179 147 151 188 193 207 193 195 191 194 198 200 198 200 199 165 128 159 186 157 162 150 203 204 183 217 184 164 151 212 176 152 136 117 183 136 200 201 157 166 158 168 152 123 144 127 174 169 175 183 206 193 200 148 142 133 153 131 121 136 133 128 169 138 170 155 212 172 174 188 187 186 189 165 166 185 206 211 192 208 185 185 172 221 260 252 236 250 247 272 249 238 215 233 274 286 277 286 253 277 311 216 224 234 197 216 176 187 185 157 162 181 181 175 120 151 161 154 158 133 189 163 135 190 181 180 166 157 111 107 119 146 167 165 167 164 182 176 216 227 175 186 208 243 276 250 359 335 431 378 368 385 380 439 450 486 502 509 381 475 407 405 524 553 458 420 375 284 266 246 248 211 200 195 215 144 127 108 133 100 92 142 148 145 145 131 128 128 96 133 132 120 112 126 115 78 95 93 85 115 117 102 121 124 111 126 135 138 140 144 120 124 130 119 113 104 90 91 82 59 83 81 67 74 66 69 79 79 82 82 84 87 85 84 86 87 86 88 87 87 87 87 88 89 88 92 91 87 85 62 60 56 54 51 49 48 49 52 46 48 49 46 47 47 46 47 48 46 44 44 46 45 44 45 41 53 47 61 47 38 35 34 46 42 70 62 46 50 73 64 84 84 88 90 90 89 94 94 95 93 91 93 96 92 89 88 82 83 74 77 67 65 67 73 58 88 95 97 94 94 92 92 90 94 95 91 86 85 91 94 90 87 89 91 92 94 90 91 90 89 90 96 82 68 66 92 79 67 74 71 98 94 98 102 105 103 108 82 98 103 102 104 107 106 104 100 99 86 77 97 83 82 79 66 66 98 98 100 98 97 98 96 93 99 93 74 94 92 97 89 92 77 71 64 56 66 55 57 70 54 80 77 94 89 67 79 55 50 67 73 67 66 63 58 55 56 56 57 58 57 52 55 62 54 55 50 49 47 49 49 51 51 52 54 55 59 58 62 59 65 68 62 62 67 77 86 90 86 87 81 95 99 100 105 111 118 119 131 118 121 119 117 109 104 111 111 102 104 111 118 127 126 136 129 108 102 104 112 120 112 121 118 123 111 109 109 102 116 128 143 148 148 137 132 134 134 135 131 129 123 133 122 123 117 118 112 111 117 108 102 112 106 115 113 113 121 148 132 157 135 153 159 139 149 187 180 132 159 154 164 171 148 165 145
157 176 207 209 197 183 173 199 134 146 165 182 132 140 149 144 161 159 148 144 162 152 133 144 158 165 181 159 152 171 165 190 201 190 167 192 185 198 172 168 111 140 144 158 155 144 182 143 129 150 162 178 178 185 203 189 194 179 146 196 149 153 134 143 163 160 172 195 150 155 169 171 183 166 172 192 201 191 201 172 199 214 213 226 218 224 211 197 203 244 233 256 236 294 294 275 254 214 205 209 235 211 201 205 261 279 233 200 183 230 186 183 161 143 165 188 193 200 152 170 162 191 159 181 173 182 158 147 150 182 153 122 104 104 104 104 121 104 110 121 123 138 134 169 243 214 205 203 278 199 275 374 335 461 320 202 247 409 417 331 423 489 606 509 616 614 648 573 490 500 405 494 325 292 370 246 215 195 229 215 201 206 162 150 172 170 146 148 145 152 145 146 148 144 135 138 140 140 140 123 123 113 102 92 91 98 99 113 116 118 118 95 115 107 130 129 134 134 130 108 102 97 102 90 84 80 54 64 96 55 89 91 96 78 70 87 80 81 80 84 89 85 86 86 86 88 101 97 84 77 86 83 80 88 91 93 72 58 52 50 69 50 50 46 50 48 48 48 48 47 45 45 51 45 42 42 46 45 45 46 44 47 46 43 37 35 35 45 50 61 57 43 89 85 80 90 86 98 104 99 96 97 97 95 93 93 91 96 92 95 92 97 96 95 92 99 96 82 81 75 72 70 75 73 71 72 71 76 71 62 74 84 86 89 94 94 95 91 91 87 93 87 91 88 89 91 93 86 90 86 93 91 87 99 95 99 93 102 113 113 104 104 108 100 111 104 109 112 112 109 103 107 102 97 99 96 94 82 78 74 70 69 87 85 113 99 99 96 106 102 99 101 94 86 82 77 77 97 92 92 96 93 83 93 99 101 103 92 94 89 92 89 78 62 63 57 50 74 72 75 78 58 58 49 65 61 64 75 91 70 69 63 53 49 50 51 52 43 57 51 67 53 58 64 71 64 66 69 77 86 80 70 77 77 95 105 97 110 104 100 103 104 103 106 111 116 113 112 98 92 103 113 119 117 115 120 123 120 122 123 107 97 96 96 100 105 123 121 133 125 125 101 102 105 108 115 119 121 128 114 112 117 118 124 116 108 104 104 107 102 107 111 102 100 103 109 108 110 131 167 160 166 173 175 150 163 167 167 172 162 181 173 175 174 171 167 160 167 167 168
172 155 148 161 202 196 164 157 151 116 137 126 124 120 132 136 149 154 130 153 146 133 139 148 149 146 161 139 171 150 162 215 187 202 161 180 194 180 200 152 122 108 177 179 173 154 166 142 121 133 167 168 165 167 176 163 136 167 173 210 173 182 147 132 122 128 147 137 145 176 147 138 172 158 148 195 183 233 206 192 183 233 239 223 222 201 208 210 168 239 275 254 261 276 276 222 262 225 223 197 266 249 235 231 269 292 288 255 250 228 184 193 184 203 213 189 181 203 185 204 179 205 208 184 212 207 213 171 194 145 149 138 138 136 104 104 104 104 104 122 124 146 208 154 168 219 267 236 209 293 331 408 299 332 243 312 372 250 282 379 416 511 740 574 592 697 554 541 478 548 361 504 272 260 309 272 258 237 276 248 234 207 165 158 181 150 148 128 158 138 125 133 124 145 142 148 139 140 140 141 136 128 116 98 93 97 93 101 106 111 106 109 115 114 130 128 139 132 132 128 116 110 102 96 89 82 86 86 86 66 83 88 81 76 83 89 86 87 87 92 87 88 86 86 89 87 94 84 83 80 68 73 98 92 84 89 77 60 54 54 57 68 46 51 50 51 48 46 46 47 47 46 44 49 43 40 46 45 47 49 50 55 51 34 28 28 40 45 71 64 65 49 77 88 94 96 98 96 98 98 98 93 93 97 95 96 99 93 92 96 96 92 93 96 95 91 95 95 93 79 78 96 80 79 80 77 77 78 77 77 76 94 91 96 94 92 94 91 92 92 90 88 91 95 93 92 93 93 93 95 81 89 91 95 98 102 106 105 110 112 107 108 112 114 111 111 102 117 111 108 106 101 101 99 85 92 88 80 78 76 82 83 105 121 124 120 114 110 107 106 102 98 89 89 73 66 86 95 95 100 100 100 101 97 100 98 101 94 89 91 86 70 66 55 65 71 61 80 84 84 91 92 64 72 70 74 91 74 96 96 68 69 67 49 50 49 52 51 49 51 52 55 58 57 62 63 64 67 73 71 73 75 75 84 96 89 96 100 100 94 94 101 99 103 100 109 101 89 90 91 108 106 114 115 113 106 111 111 113 115 111 89 96 94 99 104 117 119 122 117 114 96 95 103 104 114 110 111 106 102 108 107 110 111 108 102 103 103 108 105 105 98 99 98 120 115 130 153 158 139 134 145 145 141 147 163 168 168 181 181 184 172 172 172 172 171 170 181 169 167
161 178 187 151 163 166 139 124 138 129 143 158 170 156 166 142 137 134 127 119 124 141 157 144 135 138 175 177 187 194 202 188 173 154 135 153 167 165 199 215 154 137 150 206 195 183 188 141 194 147 115 151 176 158 130 139 140 130 149 163 168 167 157 121 151 134 147 153 163 147 197 174 169 180 209 165 188 159 186 217 238 209 241 262 265 252 232 230 181 204 253 299 279 304 247 233 264 263 244 206 253 230 284 259 239 265 285 246 218 190 243 213 225 223 232 191 188 174 154 203 197 201 196 194 134 157 142 146 168 166 157 162 116 104 137 104 127 125 165 146 121 148 175 143 229 141 241 202 233 359 304 441 357 340 314 279 305 438 437 362 372 510 445 516 506 448 565 482 493 423 389 308 362 415 240 222 319 197 190 214 193 190 154 177 167 165 172 150 150 140 127 140 127 139 139 117 89 124 92 92 83 105 76 83 104 104 98 95 90 92 108 109 112 110 115 114 89 116 128 128 109 96 89 92 96 94 85 84 77 79 76 69 74 67 81 84 84 83 88 77 85 79 88 89 88 88 89 89 88 86 87 90 87 64 62 75 63 65 62 59 55 57 52 51 50 49 46 47 45 55 50 49 48 45 45 45 46 48 46 44 52 45 57 30 42 47 35 88 96 61 84 77 67 55 94 97 98 97 93 93 96 94 97 95 95 96 97 93 96 94 95 94 93 92 93 94 95 94 93 96 98 95 92 94 88 79 79 79 80 83 81 78 78 82 84 83 81 78 81 84 82 85 96 83 82 88 89 89 92 97 93 97 99 102 98 96 116 106 115 111 115 118 107 118 118 114 109 103 113 108 103 102 96 93 97 86 81 74 70 92 115 123 113 109 111 105 106 108 102 92 96 92 72 66 73 90 108 111 109 107 103 101 94 81 92 94 83 83 80 66 67 62 65 56 68 103 102 94 101 88 96 99 82 93 104 98 97 103 97 96 98 95 71 73 78 69 52 51 53 52 53 52 52 53 52 52 53 59 59 63 67 75 75 75 91 92 89 79 83 89 89 91 96 102 92 79 101 102 98 98 96 96 96 93 89 101 104 107 104 100 89 87 92 92 95 93 103 101 101 99 97 93 87 100 101 92 97 97 102 91 93 91 97 94 98 95 95 98 101 102 107 113 139 121 101 132 139 120 137 143 164 159 171 163 159 176 170 167 177 167 164 160 165 160 150 162 156 168 181 162
124 162 171 177 149 137 109 106 150 177 127 143 165 174 139 156 135 145 152 142 135 128 136 136 143 144 147 154 191 177 176 172 167 160 158 143 217 157 126 139 102 125 152 160 186 163 191 131 152 169 143 99 113 108 105 116 135 139 177 177 165 165 140 126 154 153 188 168 162 147 168 181 183 189 202 182 230 174 165 198 230 262 255 238 203 225 221 205 205 187 242 263 282 251 278 239 243 238 247 213 197 230 256 281 300 287 263 220 214 249 233 225 225 206 236 189 153 148 184 153 193 163 143 211 206 190 205 157 228 204 189 154 127 104 104 104 150 135 152 185 191 125 121 131 138 171 173 261 262 307 351 325 419 206 258 305 308 351 286 323 368 415 326 348 432 382 453 471 555 406 439 336 330 281 332 238 183 197 193 274 242 252 186 180 140 172 157 153 146 138 140 141 123 115 126 133 116 113 104 117 101 125 134 76 76 80 101 101 88 81 84 98 101 111 78 102 111 116 112 132 127 125 112 103 97 95 88 91 87 85 79 79 62 56 82 80 80 91 84 92 74 86 87 91 86 89 86 86 87 86 78 92 77 76 78 81 81 67 62 61 62 60 63 55 52 50 49 49 51 46 46 50 46 47 45 48 49 49 49 48 45 43 41 89 93 98 67 95 94 95 98 87 69 67 53 54 97 72 91 88 95 93 95 95 96 94 98 93 95 88 88 94 93 90 95 95 95 93 94 93 91 89 90 89 79 76 91 87 79 79 79 79 82 78 76 77 76 83 83 86 85 86 86 85 87 86 84 87 89 95 99 100 97 102 111 110 114 117 116 120 122 122 121 115 116 105 92 102 100 84 99 98 87 91 95 86 82 76 77 73 75 106 106 101 97 106 86 94 78 78 73 75 80 76 93 105 107 100 107 98 94 69 84 82 83 79 84 74 69 83 72 69 68 107 105 103 107 107 110 102 105 101 99 105 98 100 103 96 104 105 98 92 83 81 70 53 51 49 52 58 53 51 53 53 53 53 53 54 58 61 67 70 81 79 99 77 80 78 79 86 88 91 90 89 89 90 85 97 99 94 97 94 91 84 100 103 99 97 98 93 91 89 88 85 91 95 92 93 96 95 93 87 88 87 96 91 84 86 84 86 92 99 95 101 101 107 104 106 114 117 143 137 131 115 113 117 116 131 149 148 165 166 167 162 161 149 153 146 148 144 152 151 154 162 154 138 172 173 161 145
140 151 127 147 163 139 110 131 128 137 131 161 147 169 145 155 157 152 148 145 167 170 178 178 159 168 155 146 137 146 158 140 155 168 165 154 140 133 136 136 112 99 135 129 139 163 167 112 96 101 105 104 122 113 129 131 100 111 143 141 131 129 120 138 153 216 213 215 198 189 187 170 175 183 192 192 200 197 196 211 211 261 255 249 210 201 245 272 220 192 226 281 263 310 271 294 286 285 269 243 239 223 259 283 278 277 242 200 183 195 227 250 207 192 167 210 203 206 206 215 211 192 198 175 172 166 180 175 131 104 104 162 104 104 138 141 218 178 184 205 203 249 245 184 139 230 293 285 236 230 183 386 339 428 372 268 279 236 354 270 372 524 453 512 521 486 493 435 443 349 547 425 327 299 243 320 230 180 180 239 236 221 216 182 164 162 163 156 167 162 158 135 125 133 130 147 117 119 139 142 141 141 138 143 130 112 116 99 87 71 74 76 93 83 88 113 111 100 113 121 117 123 123 117 108 94 93 90 85 84 70 66 80 60 64 64 64 63 70 67 66 70 86 85 87 86 88 90 89 89 86 89 89 87 86 82 91 68 65 64 62 63 60 58 55 56 50 48 51 44 44 44 46 45 46 52 46 46 50 48 46 43 45 31 98 97 92 61 100 96 96 96 92 95 86 83 65 95 98 87 92 72 67 66 65 85 84 93 89 89 93 90 93 94 93 95 93 92 91 91 91 89 77 90 90 95 94 93 93 93 93 91 96 91 93 90 88 94 89 84 81 87 89 87 88 89 90 90 90 87 88 90 89 94 107 107 102 107 110 114 110 120 123 123 120 117 115 117 115 114 103 99 100 98 93 94 86 81 72 75 117 105 109 85 82 84 109 110 105 107 96 97 75 78 109 109 107 88 86 102 99 99 98 105 104 99 97 102 86 93 90 86 74 71 119 118 117 121 109 108 108 105 106 104 102 101 101 94 75 69 64 57 55 72 109 103 75 70 70 70 76 53 52 57 57 54 54 56 60 55 56 64 60 67 69 73 71 86 85 79 79 90 77 70 74 81 82 84 82 82 82 80 78 82 83 88 81 81 89 78 86 81 78 77 76 90 84 77 79 88 81 83 90 91 93 90 89 89 94 95 98 105 122 133 142 146 148 164 163 130 143 150 149 143 142 150 103 105 138 148 153 149 131 126 124 125 120 132 123 125 119 125 151 150 156 156 161 164 168 166
167 130 138 171 133 106 120 112 127 132 135 148 142 143 167 146 159 153 161 159 150 165 152 163 149 146 160 155 160 158 164 143 143 157 160 139 130 132 143 116 141 133 98 96 111 118 101 106 101 122 120 118 145 140 156 145 126 110 108 111 147 146 113 129 119 130 136 124 124 114 122 146 150 164 136 164 188 175 156 215 230 218 208 225 228 223 250 237 258 225 228 257 244 290 268 277 282 254 230 283 273 238 261 240 266 249 246 208 226 220 208 216 178 145 145 176 191 181 167 181 206 141 172 172 150 133 163 225 128 211 292 178 134 133 147 109 151 133 188 193 195 261 254 154 235 246 257 312 190 207 190 287 355 272 302 339 355 347 317 283 287 374 464 411 433 421 439 420 389 370 458 372 425 361 287 263 251 212 234 227 215 208 191 189 182 175 177 166 172 172 171 152 147 142 139 160 147 151 144 138 137 124 115 94 95 83 74 77 104 96 77 69 69 76 87 87 88 90 108 110 97 112 108 117 117 103 98 94 86 76 77 73 79 74 66 49 54 57 59 56 58 61 63 70 71 79 88 93 88 87 84 85 85 89 81 71 69 65 67 64 59 60 58 56 51 52 49 49 49 48 46 47 49 47 45 48 48 49 50 48 42 40 39 31 85 94 95 93 93 93 95 95 82 92 92 84 87 74 80 81 63 83 96 93 89 89 89 90 93 92 95 92 90 91 92 90 93 95 94 92 92 93 78 81 83 84 94 93 96 92 90 93 92 94 96 95 96 92 90 87 88 90 99 102 104 102 99 93 97 98 99 99 94 92 93 111 117 107 121 119 124 119 122 116 116 113 111 107 111 108 97 95 99 99 91 87 76 79 74 103 100 91 93 108 104 119 115 116 110 107 97 97 77 97 92 92 106 106 110 114 118 103 110 110 110 110 81 104 103 100 98 94 77 66 90 97 110 110 115 112 102 106 93 89 74 72 71 76 62 96 77 102 111 103 108 108 106 99 74 72 76 75 76 80 78 53 61 56 56 56 60 59 64 65 66 68 67 65 65 65 64 63 59 68 72 68 79 79 79 78 74 76 71 72 75 70 72 72 69 72 77 78 74 75 74 77 87 86 84 92 88 94 88 94 96 114 104 119 135 134 136 125 131 127 114 151 159 163 151 162 172 166 157 166 167 153 134 111 106 109 111 108 110 111 115 125 147 165 155 160 158 147 136 127 128 171 171 180 176 177
121 117 125 133 134 110 122 121 147 153 160 154 143 169 155 148 139 148 159 143 150 164 153 160 145 140 157 163 170 167 164 143 154 154 164 173 131 130 136 142 111 101 128 111 102 99 94 109 101 140 124 112 154 166 157 153 137 118 153 156 130 124 156 171 165 130 113 130 183 163 134 123 117 120 120 129 130 122 123 159 196 194 191 224 245 242 270 241 258 251 258 245 238 283 276 255 244 266 285 274 243 231 280 265 267 253 229 176 178 188 159 186 213 168 192 157 188 191 176 134 199 171 112 169 210 172 192 216 213 267 263 248 150 163 134 138 104 118 164 250 257 219 299 233 161 226 199 245 268 289 187 210 179 293 218 239 263 339 296 328 286 329 366 380 434 315 291 287 449 360 355 394 469 351 279 263 237 221 230 195 214 232 192 197 180 183 172 170 167 170 166 171 168 149 134 153 154 154 131 99 91 82 79 86 125 117 112 113 102 107 86 84 71 67 74 77 83 86 90 98 98 106 116 111 113 110 102 107 97 88 84 83 79 79 74 61 60 57 54 62 57 59 60 60 62 70 75 69 69 72 77 81 81 85 74 68 68 65 63 69 64 56 63 55 50 52 48 48 48 48 42 49 45 45 44 48 48 49 38 41 41 49 51 98 98 93 96 93 96 93 95 91 91 93 95 90 93 95 90 93 88 86 63 94 94 92 93 93 91 93 93 91 90 91 90 91 93 92 92 95 92 94 87 94 90 85 99 94 94 87 97 93 96 96 98 97 96 95 99 86 91 89 94 102 108 106 103 104 105 105 106 100 101 99 95 96 97 110 114 106 115 113 109 100 101 92 93 90 90 104 94 102 97 93 81 82 78 77 119 102 113 111 117 119 123 123 115 117 113 104 96 85 69 87 110 112 117 105 111 116 123 123 112 104 103 103 107 108 108 104 105 100 81 72 62 111 112 108 93 91 85 91 82 88 81 80 78 61 78 101 102 109 106 101 106 96 99 98 101 92 73 78 71 62 60 68 54 57 56 59 56 56 57 56 71 63 58 58 60 62 58 66 66 62 68 64 73 65 61 67 64 74 67 69 67 69 66 69 74 71 75 76 88 85 90 76 77 89 91 91 93 99 110 129 139 124 118 140 142 138 130 114 150 139 135 141 128 161 174 174 171 153 175 179 154 147 131 124 114 110 118 131 128 116 116 134 145 172 160 162 158 153 153 152 129 127 137 176 145 169
124 131 139 136 110 104 125 129 153 127 119 118 132 124 142 136 113 136 133 145 136 162 168 159 164 171 170 176 163 163 142 144 135 140 173 178 151 158 169 130 133 140 90 99 115 120 130 129 152 147 139 144 140 147 144 151 136 136 158 140 150 180 135 173 166 162 134 185 202 179 182 200 137 212 144 164 198 178 209 152 134 135 150 132 162 198 146 185 271 235 299 249 233 250 209 244 283 259 273 261 282 227 282 305 272 259 270 210 202 229 186 221 191 158 148 139 191 193 178 184 118 149 191 179 195 188 236 186 263 292 273 281 213 222 186 104 139 104 192 186 234 164 208 234 199 188 233 234 230 176 155 145 167 129 271 260 309 294 295 328 305 318 298 230 392 356 416 431 344 336 371 432 429 275 261 251 250 220 249 255 226 219 235 189 179 182 188 181 182 177 174 165 170 165 163 167 130 155 122 116 151 151 143 143 131 122 127 116 113 94 121 106 82 69 68 76 78 81 84 89 101 105 113 94 104 109 111 109 90 88 79 71 69 67 67 71 76 82 58 56 59 57 61 56 57 61 62 76 78 83 85 77 74 65 64 62 61 59 56 55 63 56 54 52 52 48 53 49 47 46 47 46 48 49 47 51 47 58 37 42 38 47 89 91 100 98 95 95 96 96 96 101 95 96 96 96 90 91 91 92 90 91 99 81 94 92 91 87 96 93 95 93 94 92 92 95 95 93 95 94 94 91 95 96 93 97 89 98 98 99 101 101 98 100 101 100 98 98 88 99 102 93 109 113 115 108 110 116 114 117 118 119 113 102 117 116 107 112 104 119 119 121 120 122 122 121 115 112 115 108 101 98 96 94 88 78 73 121 123 122 123 115 119 111 109 85 98 102 110 106 100 93 84 91 87 112 130 121 122 111 115 113 115 113 121 120 118 111 111 106 89 83 78 66 91 108 115 117 115 112 112 108 102 98 99 73 71 76 111 106 112 94 92 104 103 103 108 97 104 99 80 62 58 60 62 61 61 77 72 49 55 59 50 62 73 81 77 74 71 71 77 73 78 86 75 79 78 78 85 79 78 81 77 83 90 92 84 77 83 82 85 94 92 98 114 110 134 131 111 102 104 134 142 147 141 138 149 156 155 140 130 144 158 158 158 150 149 144 153 174 174 163 147 139 144 142 135 141 118 126 143 148 146 143 151 138 127 123 173 169 166 163 156 160 164 162 133 132 131 132
148 152 136 128 109 115 144 134 136 134 134 110 122 134 129 114 123 148 154 139 137 129 149 147 142 153 145 142 130 137 124 119 121 134 139 128 127 134 165 138 102 92 98 97 122 116 141 151 153 133 139 158 161 163 148 140 160 156 143 172 159 161 144 192 230 144 129 184 179 168 157 135 187 159 139 150 187 163 139 130 159 148 138 139 138 134 162 149 231 202 212 213 207 246 196 204 289 205 235 272 266 274 307 283 297 286 264 258 231 213 196 185 149 152 161 182 169 198 182 139 201 164 210 170 166 183 183 192 248 279 274 165 189 208 198 104 144 177 136 255 247 156 167 130 245 213 244 224 223 125 113 115 123 155 257 312 262 338 295 283 212 291 270 401 375 385 452 449 369 368 431 396 392 340 309 288 257 265 256 251 247 229 224 192 189 196 187 198 199 173 174 183 169 169 166 163 161 138 134 114 96 142 121 141 135 122 127 124 114 106 110 121 86 89 67 64 67 82 80 89 93 100 98 103 110 105 102 112 113 119 86 96 92 93 74 92 85 68 50 59 56 59 58 57 56 58 57 60 69 67 79 66 61 63 62 60 58 56 56 54 57 53 53 52 46 48 50 51 53 48 47 49 48 48 49 49 49 49 40 43 49 49 89 82 95 98 95 98 96 97 92 96 92 92 95 94 99 96 96 92 95 89 90 79 98 92 91 94 81 90 92 93 95 92 92 93 94 93 95 94 96 95 97 96 97 97 99 102 100 102 100 102 101 104 101 101 101 100 97 103 107 104 113 117 119 112 103 122 121 122 122 115 111 112 115 112 114 114 111 116 117 123 127 121 120 111 111 111 108 102 106 99 96 95 84 78 75 80 88 126 120 118 111 88 95 114 111 97 103 101 90 84 86 87 112 122 127 114 107 105 109 108 104 101 94 89 104 80 115 104 91 73 74 106 108 119 124 113 119 117 118 113 97 85 80 78 70 68 102 105 106 108 102 106 110 106 82 79 84 78 66 61 66 67 70 71 76 78 80 64 67 57 57 63 52 59 60 82 86 85 90 99 87 90 95 103 95 91 88 88 90 88 91 95 86 93 91 88 96 90 101 104 118 118 138 145 120 119 106 112 125 138 156 152 152 136 156 157 150 137 139 152 164 167 168 166 156 141 160 166 170 162 152 156 155 148 150 140 141 144 150 156 165 156 151 129 124 140 132 127 134 174 165 153 157 145 150 145 143 134
147 157 139 122 113 108 107 102 145 139 104 102 115 111 114 130 126 142 126 133 127 128 135 137 145 155 129 125 123 119 115 115 123 116 125 134 142 133 143 130 100 96 114 110 130 134 147 164 147 163 153 162 164 158 145 174 156 170 172 168 167 170 144 222 206 199 175 191 206 186 161 170 171 127 159 169 179 178 157 177 184 179 207 160 183 206 146 156 148 144 136 139 150 159 151 168 207 228 225 237 240 218 231 260 282 308 254 205 227 158 184 200 220 173 148 154 160 173 165 205 229 216 178 162 208 150 213 134 208 264 200 112 147 172 212 204 104 144 154 184 104 247 104 239 206 114 113 109 221 223 198 201 209 134 180 331 273 322 313 216 297 272 329 292 293 356 379 441 351 315 472 378 355 417 302 274 256 301 270 284 243 195 210 249 197 213 196 207 201 204 206 208 189 179 193 191 164 150 156 138 118 122 114 151 146 126 109 130 118 120 133 134 98 92 66 66 64 65 61 77 71 71 83 82 86 86 97 99 98 102 111 116 109 97 107 110 113 108 113 100 98 53 56 70 55 58 60 61 64 64 73 71 67 64 63 62 62 62 62 58 63 57 52 52 52 51 51 53 50 47 49 50 50 48 45 46 50 45 39 46 94 100 96 96 98 100 99 94 97 93 96 84 95 97 94 93 85 71 92 96 97 93 95 92 95 91 94 95 95 94 93 93 94 94 94 96 96 98 98 98 97 100 96 101 102 103 101 103 105 105 105 106 104 102 103 99 100 100 105 108 114 119 118 118 119 115 116 113 118 125 119 120 121 120 121 120 110 118 125 124 129 120 121 121 122 111 106 94 91 97 108 95 100 95 88 92 85 78 81 75 81 112 114 122 116 122 120 117 100 106 101 99 89 88 94 131 127 128 127 132 127 111 119 119 123 121 117 114 85 86 72 104 123 124 122 119 121 117 119 120 111 107 105 95 90 75 77 76 112 114 111 111 103 92 96 98 103 95 74 89 102 95 103 91 78 78 78 80 79 79 72 64 63 59 60 64 60 73 71 75 81 89 87 94 102 112 117 121 131 149 142 139 123 118 116 124 119 134 129 138 143 130 119 140 149 144 137 119 145 131 145 161 153 152 157 140 154 154 160 159 160 168 168 161 160 150 148 147 146 144 143 149 152 152 157 153 161 165 163 150 145 145 149 144 151 134 140 136 136 136 150 149 142 136 152 166 153 145 165 150
157 151 152 120 122 129 146 148 156 161 152 123 102 117 126 134 148 120 137 117 129 122 136 145 140 142 129 119 120 112 114 129 106 119 126 118 127 135 139 126 123 95 94 111 126 131 129 153 156 202 191 173 188 154 156 158 177 178 146 183 169 192 183 171 166 209 172 192 193 223 177 197 135 186 200 163 196 181 192 191 181 213 176 208 166 153 182 186 167 165 147 152 149 138 163 194 160 240 188 255 245 207 222 237 232 235 245 241 220 213 202 152 149 148 161 196 184 203 183 195 221 191 199 126 136 201 150 160 104 118 155 138 129 124 181 174 104 147 187 146 181 206 119 206 104 178 210 212 225 254 235 202 164 224 180 307 340 276 258 241 329 208 296 324 300 356 262 346 337 421 418 338 368 485 299 376 321 258 237 242 237 227 228 226 224 159 210 205 210 199 180 206 194 215 197 185 178 158 158 135 115 117 152 149 148 133 127 127 128 133 116 124 92 93 124 95 65 60 64 65 61 68 71 65 73 75 87 92 98 97 98 109 109 110 110 114 110 111 111 92 62 95 71 53 60 58 73 71 73 63 66 70 63 64 64 64 61 60 54 53 52 53 52 53 52 51 50 48 48 47 47 48 52 50 48 47 45 42 41 42 42 33 42 95 62 93 93 100 101 98 94 60 92 92 95 97 94 60 95 92 94 95 95 94 96 93 93 92 95 95 96 97 97 97 98 98 98 100 102 101 101 100 104 103 105 103 103 105 104 103 105 104 103 105 103 100 102 105 102 103 121 121 125 122 123 124 122 125 123 125 123 129 123 120 123 118 120 123 127 129 124 121 117 108 115 104 99 90 114 110 105 108 103 101 84 83 87 82 82 81 81 84 83 86 122 119 116 118 103 116 106 116 98 121 128 124 129 131 134 134 122 131 132 122 117 114 104 104 90 74 121 122 120 117 113 90 87 95 80 78 76 81 84 101 97 82 79 71 108 112 111 105 104 99 107 107 103 110 99 105 106 107 94 109 107 107 83 77 81 77 76 81 65 63 57 59 60 62 60 75 72 80 85 84 84 98 110 118 120 126 116 114 102 119 113 139 142 159 160 146 141 123 130 148 150 146 129 132 152 164 161 164 163 158 159 148 159 165 171 168 168 173 173 170 158 164 151 148 148 142 156 150 160 157 166 173 173 167 161 170 164 165 153 169 149 145 155 153 138 140 160 159 156 151 148 141 168 156 164 153
158 147 151 133 139 135 141 145 136 116 129 114 121 132 137 116 103 116 107 119 134 136 133 146 118 128 114 109 118 115 113 114 116 106 112 115 117 123 116 118 101 94 94 110 121 117 121 153 182 208 213 217 164 153 218 188 208 209 186 182 195 195 193 178 188 150 126 168 206 197 169 170 177 143 196 184 174 191 182 180 176 220 207 207 211 210 158 176 216 205 191 224 219 148 202 157 144 204 212 199 204 178 202 206 204 197 230 248 236 217 184 194 192 224 201 244 224 204 167 194 139 185 131 186 157 127 207 88 87 108 86 109 87 96 96 87 135 185 232 210 178 178 180 202 219 222 162 197 235 260 263 244 233 199 268 307 353 408 301 280 328 293 305 165 248 265 327 404 305 311 310 392 354 368 413 301 216 193 213 225 195 223 264 249 235 214 207 207 198 233 214 219 224 223 207 202 183 160 163 157 150 154 148 113 112 135 100 134 129 118 109 99 123 110 130 98 122 140 142 131 128 100 106 100 98 58 77 68 95 103 108 104 111 108 107 105 109 72 71 87 67 86 91 98 85 82 55 67 60 70 53 54 62 57 58 52 51 52 54 49 49 46 51 51 57 52 53 50 50 50 50 49 53 46 53 50 42 40 55 44 47 50 49 46 40 34 47 45 46 43 44 42 46 44 55 56 61 60 98 100 48 101 98 98 101 101 102 103 102 105 101 99 98 97 96 98 104 100 103 103 105 104 105 105 105 104 105 107 106 110 105 106 106 101 105 102 106 101 107 115 120 124 128 131 110 122 126 119 105 115 131 119 118 129 129 126 126 130 130 126 125 126 123 112 110 94 113 125 127 110 112 116 111 112 96 94 99 107 109 112 112 109 103 104 99 89 129 128 132 130 123 131 127 118 118 122 129 129 120 125 129 122 118 119 99 102 84 79 107 122 123 121 124 100 111 118 111 121 122 112 116 107 111 101 107 79 87 68 73 73 87 123 116 115 116 113 119 110 116 114 116 111 113 110 106 109 100 90 80 77 71 64 81 77 82 73 58 59 60 73 60 71 80 78 78 84 83 87 93 88 85 83 93 108 110 110 120 124 115 128 140 142 152 148 143 144 156 162 159 144 137 130 138 154 155 155 151 160 155 153 129 146 146 147 127 124 124 123 123 136 143 149 130 144 138 140 135 146 143 148 146 146 148 154 170 161 167 158 157 149 147 144 167 169 162 153 153 150 173 182
146 159 147 118 112 102 116 121 118 141 126 98 101 112 113 132 125 136 145 144 135 140 124 126 124 124 130 127 111 106 108 128 121 100 96 114 114 120 119 125 121 90 90 97 116 150 155 145 153 191 188 216 244 250 239 242 214 207 199 193 116 183 145 114 189 149 145 161 180 191 201 205 186 153 160 207 200 204 195 201 200 205 248 231 214 197 184 154 169 162 202 199 201 157 222 199 153 149 145 149 170 182 183 229 242 183 205 212 224 253 223 264 253 183 155 172 181 206 197 182 176 225 205 150 113 146 103 213 169 135 199 138 118 108 117 103 150 218 229 202 165 164 118 116 166 219 240 268 192 202 256 199 254 254 295 258 286 317 338 329 349 350 346 359 282 196 247 233 335 380 449 380 348 481 351 272 248 227 244 206 249 258 283 231 221 261 232 204 213 232 209 230 226 228 247 217 196 185 175 155 161 137 144 113 137 115 130 73 74 73 82 70 69 74 113 96 112 104 116 120 90 117 133 122 125 105 66 62 77 81 102 87 93 96 96 109 110 99 101 109 109 105 110 104 101 101 46 53 67 63 61 57 55 53 52 51 51 63 52 52 53 54 54 60 51 50 45 48 61 53 55 52 52 53 47 46 45 42 61 57 60 57 55 58 63 58 62 56 51 47 56 55 52 55 54 58 54 55 56 50 53 50 49 49 41 49 57 50 57 101 99 103 101 97 98 108 106 108 107 107 106 104 108 111 109 109 108 109 101 106 105 97 108 106 109 108 108 110 103 112 125 121 125 125 121 114 91 122 115 126 105 89 95 88 95 96 110 127 126 131 121 119 115 96 121 123 113 121 125 127 119 113 109 94 87 114 117 116 120 121 130 119 109 110 109 97 102 124 127 126 126 130 128 127 133 127 125 124 113 90 90 109 110 110 88 81 90 123 102 126 125 129 126 131 127 122 128 117 107 106 107 104 100 84 67 73 77 101 101 96 91 109 128 127 119 126 121 130 120 111 111 108 102 111 99 107 107 103 97 76 79 65 118 119 114 114 92 75 60 61 58 60 62 66 72 79 70 72 71 78 78 75 77 74 80 85 85 85 90 86 105 109 128 125 123 118 133 148 154 143 142 132 130 120 119 123 114 117 116 113 118 106 118 141 153 147 147 145 165 172 172 159 162 158 166 167 151 162 180 176 164 161 159 174 166 167 177 173 175 164 153 158 164 179 170 170 156 155 179 196
139 171 143 153 99 109 110 139 152 115 104 103 94 108 119 129 141 143 133 145 157 139 140 131 127 129 135 127 139 115 120 106 103 95 90 123 105 109 112 130 142 146 131 81 101 136 138 136 139 166 154 220 257 268 249 205 196 191 201 192 145 212 145 164 120 130 138 198 181 185 197 216 210 190 196 192 239 224 220 211 221 194 253 170 216 225 189 192 205 182 198 191 165 182 183 223 210 163 190 183 154 193 204 215 183 196 228 236 214 244 241 222 231 168 181 157 191 140 146 229 182 168 85 112 85 135 95 196 162 144 160 131 141 160 145 134 207 163 244 225 192 155 182 211 222 251 221 245 207 193 243 236 271 244 285 264 295 347 355 365 365 379 430 201 223 273 212 338 414 434 442 345 324 362 386 389 342 250 271 215 226 262 271 276 245 238 230 224 218 225 223 234 229 225 221 221 192 183 169 151 140 128 145 148 144 130 103 79 115 109 102 93 133 118 67 75 96 107 100 100 110 116 97 128 120 120 60 67 87 84 92 101 98 100 99 97 104 94 100 98 113 104 101 102 102 103 85 99 59 63 59 60 54 53 51 50 49 49 50 52 53 58 50 58 61 52 46 46 52 51 48 53 60 43 51 38 57 62 59 56 53 56 55 56 53 55 53 61 59 50 58 56 53 56 58 58 58 56 56 55 57 57 56 57 58 47 47 47 58 78 95 104 92 83 105 106 105 107 110 109 112 108 107 115 111 110 110 111 110 112 106 108 106 110 105 110 109 107 109 93 128 127 112 121 123 116 111 93 79 83 97 120 114 122 127 119 128 129 126 129 125 121 113 113 123 124 124 131 127 128 122 118 110 92 112 119 120 126 124 122 126 125 122 119 115 102 92 95 128 120 111 109 133 135 135 126 124 132 123 129 117 113 104 91 88 82 121 126 131 124 127 125 128 129 122 114 113 105 101 96 87 89 70 73 84 89 113 116 106 108 98 102 121 130 128 127 121 109 112 94 97 88 85 109 107 102 104 96 98 75 79 71 90 103 115 94 118 103 68 67 53 61 60 69 59 68 75 71 71 71 71 81 86 70 88 72 71 75 75 79 84 77 84 96 98 108 132 140 141 124 121 115 113 100 106 98 112 117 123 122 121 125 135 143 147 160 164 155 164 175 171 165 173 167 169 171 183 175 155 162 162 166 163 174 177 158 171 181 170 166 154 163 152 180 174 169 156 175 173 179
152 141 119 137 128 87 93 94 96 98 111 110 120 138 114 113 133 143 129 142 140 147 140 142 134 123 153 128 137 139 128 125 132 100 94 98 116 127 120 128 147 135 112 127 81 93 128 165 139 154 169 184 251 246 204 169 179 199 234 194 203 109 100 89 128 152 162 127 155 138 171 218 205 218 199 217 220 132 172 194 226 247 208 205 188 203 224 237 211 211 206 212 221 219 187 173 188 209 190 205 180 154 175 161 196 254 202 195 199 219 196 208 234 222 182 198 207 231 211 150 158 228 175 85 111 168 122 207 199 224 272 263 314 296 278 236 182 258 200 215 180 155 135 175 181 259 242 181 223 186 236 196 233 199 192 270 323 378 348 421 393 329 324 344 331 305 274 283 335 338 342 303 426 393 326 367 318 262 238 209 241 261 326 292 236 221 237 255 268 242 172 247 214 211 219 210 212 199 157 175 169 168 148 141 127 100 149 125 133 137 88 88 89 85 97 92 67 62 76 87 83 87 82 85 92 91 91 96 68 66 55 65 69 80 88 89 86 94 92 95 98 107 102 101 99 95 88 97 97 85 86 58 59 47 51 56 48 49 44 45 46 45 43 38 52 53 45 44 54 52 51 47 51 49 47 50 51 52 52 52 55 55 54 59 58 56 54 55 51 51 56 51 58 58 55 58 52 55 57 57 59 57 58 57 58 56 57 65 55 48 47 52 82 59 113 72 69 116 114 110 103 110 105 109 119 113 111 109 117 110 94 111 103 114 102 110 105 93 107 107 76 100 108 102 81 81 104 103 91 115 130 124 105 119 130 126 132 122 129 129 132 128 109 109 122 131 130 129 133 128 117 121 108 101 89 90 133 137 134 129 128 125 115 121 121 118 116 110 129 119 132 133 137 135 133 127 129 124 130 119 119 104 85 87 87 90 94 116 124 122 120 111 106 98 104 108 110 85 94 75 76 80 122 115 118 110 124 117 115 113 110 102 81 133 135 131 121 119 120 113 113 115 108 104 107 99 81 96 91 83 68 65 98 98 117 119 91 118 119 109 112 64 61 62 61 62 56 64 61 74 67 74 107 103 120 108 97 98 102 96 89 83 84 86 73 81 107 103 92 100 93 139 148 149 150 148 156 146 140 125 147 154 167 169 156 179 179 170 177 173 182 179 174 168 156 158 158 168 177 184 184 187 192 189 187 176 178 187 188 180 176 168 160 180 168 171 162 164 162 180
101 115 129 90 84 93 95 98 97 105 126 132 172 142 142 126 130 136 138 128 134 150 152 175 148 151 144 124 123 124 103 111 120 100 100 91 106 116 116 100 117 120 119 135 109 97 99 150 143 179 125 238 202 229 177 197 180 171 212 191 183 164 128 92 106 124 137 129 154 164 156 180 181 175 170 168 128 178 166 208 199 201 206 161 170 153 174 180 223 226 225 234 230 210 205 199 185 215 239 249 158 242 194 200 212 218 204 196 206 195 193 230 165 162 197 165 192 174 203 150 104 176 162 107 96 85 152 122 183 168 241 318 283 366 235 262 216 205 254 251 240 202 143 220 204 229 237 237 188 192 180 213 205 217 277 255 235 312 364 463 407 337 381 354 355 349 269 313 302 259 271 262 337 419 299 359 425 302 220 269 239 258 331 269 222 201 194 192 191 223 268 192 200 218 200 203 182 179 188 183 172 178 134 136 160 149 143 134 118 101 104 102 95 93 70 64 73 58 65 64 64 71 62 70 78 79 85 83 84 72 80 65 61 87 81 82 82 90 90 95 102 104 103 94 88 88 88 89 87 86 83 73 59 52 48 50 48 44 47 47 47 53 47 47 50 49 44 46 59 61 52 52 52 53 55 51 53 50 55 57 56 56 53 57 52 51 53 61 52 50 51 52 54 55 59 63 60 63 68 61 60 59 57 60 62 61 64 60 59 59 58 47 58 62 48 49 47 96 88 111 114 85 93 97 116 104 115 114 117 113 108 100 106 114 114 115 111 90 97 110 100 71 72 71 79 107 125 122 110 105 113 133 124 131 134 128 129 122 132 137 135 132 124 124 130 135 133 133 129 132 125 124 115 96 111 105 90 99 118 127 126 126 125 130 127 130 119 115 101 132 128 131 134 127 138 131 124 117 95 101 107 111 104 95 90 88 93 103 121 122 122 119 118 126 125 112 105 94 77 76 104 119 128 123 116 125 128 117 123 123 115 99 102 134 130 126 123 119 119 115 115 116 108 103 101 106 100 78 83 67 88 80 79 80 114 109 114 117 120 115 118 113 109 54 65 54 54 64 69 66 78 84 96 132 122 101 98 111 104 111 95 96 100 93 84 81 80 90 93 106 124 139 136 160 165 161 161 155 152 148 151 166 175 178 175 175 180 149 177 163 152 136 144 138 144 135 160 150 158 153 150 178 163 179 192 191 187 188 178 191 186 177 166 171 176 172 171 174 168 181
107 87 90 109 150 160 159 145 134 151 123 135 163 158 153 155 146 167 169 161 158 137 166 168 156 155 141 138 130 118 120 122 125 117 115 112 120 99 86 83 79 81 83 92 94 130 133 105 126 142 78 178 237 173 184 170 99 187 230 171 172 83 140 153 138 134 167 133 115 123 142 159 127 136 176 128 146 157 147 176 175 168 137 170 158 160 151 164 158 175 217 211 207 194 224 232 220 196 178 230 171 187 210 227 246 190 218 195 224 233 210 169 142 148 150 166 193 187 136 187 195 224 157 184 129 108 157 237 200 174 235 314 346 267 182 191 252 240 194 172 186 138 106 146 202 178 234 135 161 183 227 206 222 226 249 326 275 296 352 289 296 326 290 380 369 344 269 256 401 242 316 428 442 356 405 331 598 312 378 241 294 289 276 265 251 249 254 274 278 236 250 196 211 251 244 223 212 224 204 203 190 124 164 152 150 132 130 123 122 122 104 111 85 81 81 127 108 93 120 101 66 127 134 138 127 89 58 64 63 64 80 81 74 56 61 64 64 82 86 83 85 99 99 105 97 96 93 86 77 72 85 76 80 68 67 59 61 57 49 60 47 49 48 49 49 44 46 53 48 47 55 56 66 57 66 62 63 56 58 59 58 58 60 56 59 59 60 57 60 55 56 49 56 60 58 60 61 59 58 60 54 59 62 64 64 64 63 65 64 62 67 65 60 59 48 60 61 61 63 63 58 51 54 52 60 64 67 54 61 72 99 84 59 54 59 72 65 66 81 79 103 84 90 103 104 129 111 136 111 107 137 125 128 143 129 138 135 139 136 133 139 136 137 131 137 136 131 132 136 137 125 133 121 118 128 124 108 128 134 126 128 131 136 131 126 133 130 118 118 117 103 131 129 129 128 133 123 125 134 129 122 110 94 91 92 94 127 126 133 133 122 121 120 107 102 84 81 93 136 131 135 139 131 113 121 129 125 127 123 118 114 101 90 123 129 127 122 126 122 120 117 108 93 97 89 80 80 72 74 112 111 96 87 87 77 115 113 114 109 117 103 81 73 80 107 65 62 62 63 67 63 74 79 96 101 106 115 138 132 110 130 137 140 140 124 107 91 88 90 105 105 93 100 96 99 102 107 131 157 174 174 176 180 177 155 167 166 140 123 143 154 159 139 168 174 157 147 175 175 168 168 181 170 177 188 192 197 191 190 188 185 186 185 191 190 188 193 193 194 196
84 92 101 155 110 125 148 158 162 130 99 140 125 147 138 133 138 143 132 123 129 127 131 129 154 142 127 139 124 146 129 144 132 120 132 105 106 91 127 120 97 94 107 114 125 122 147 124 135 209 200 120 183 138 158 88 160 189 87 130 79 132 213 154 167 134 162 136 115 120 155 150 139 153 181 144 125 157 169 161 150 152 132 166 161 144 154 161 143 169 164 177 174 220 223 235 219 230 241 233 189 167 229 211 213 239 225 238 247 258 234 163 193 186 119 206 164 124 237 175 217 168 239 195 178 157 122 124 164 147 176 320 231 226 416 280 216 234 210 182 129 156 110 187 184 209 184 151 189 204 181 148 173 172 198 233 334 285 241 293 298 257 286 332 401 352 313 314 312 305 334 314 425 433 410 353 639 359 299 241 288 306 275 247 253 272 307 307 275 247 246 248 242 261 239 238 205 219 209 202 205 168 171 149 138 157 125 122 120 110 88 87 75 76 114 140 147 126 113 94 88 102 102 113 100 95 75 58 73 55 67 60 64 58 59 62 62 69 82 77 80 86 91 100 93 94 91 88 82 77 88 79 81 81 80 65 66 65 58 60 55 50 55 51 57 52 43 46 48 49 50 58 70 63 61 62 61 61 62 67 77 69 71 56 56 59 62 67 62 58 55 63 57 58 58 60 64 58 62 61 62 63 62 62 59 59 59 59 63 62 57 57 56 56 62 60 60 62 62 62 64 62 48 55 49 43 43 49 50 54 44 61 67 92 80 93 100 87 88 98 110 116 112 109 123 140 134 134 141 123 105 131 136 138 140 133 140 139 135 138 131 139 134 140 137 137 137 138 135 133 129 126 111 127 130 126 120 95 123 134 131 135 137 136 129 133 134 136 135 116 130 122 132 133 136 136 132 132 138 129 120 95 93 100 105 135 134 135 132 134 129 109 103 101 107 88 99 135 140 143 145 133 131 130 136 132 134 129 124 117 115 105 104 126 127 122 134 125 120 111 103 94 94 85 78 97 90 77 84 116 111 115 104 100 86 80 113 114 115 117 97 115 111 110 106 116 54 67 62 61 65 63 71 96 104 126 134 139 130 138 153 137 136 123 102 98 116 122 84 84 103 110 115 132 136 125 125 115 117 132 177 171 162 176 164 143 131 117 135 175 175 167 163 166 182 177 167 178 191 185 187 192 185 180 167 170 167 165 159 161 147 168 171 169 161 166 160 170 173 169
122 88 101 147 109 124 136 108 118 88 104 99 95 117 119 128 123 115 115 140 145 145 146 144 152 167 133 129 110 125 125 122 123 130 133 119 98 117 144 136 112 114 110 135 137 127 143 140 200 208 164 192 149 132 74 98 104 83 74 109 183 165 131 124 144 141 118 139 146 136 112 109 147 128 159 140 135 122 142 156 122 145 141 166 148 186 184 181 133 141 156 193 228 226 246 247 254 180 187 242 236 236 190 197 203 215 219 239 231 254 166 202 149 164 103 155 215 156 230 227 130 129 246 199 179 144 84 159 164 174 233 261 249 276 296 304 217 207 193 205 203 164 188 121 120 217 258 174 214 172 163 154 203 237 278 262 312 236 286 291 264 296 306 305 318 330 349 363 307 308 308 374 402 466 396 421 370 407 550 251 309 253 242 234 304 310 290 265 236 213 242 241 281 234 211 206 218 186 225 202 181 191 177 145 149 155 151 147 142 123 107 92 78 129 138 153 138 114 145 126 144 134 103 75 95 91 110 100 88 88 101 95 87 70 93 59 60 66 60 62 59 59 60 71 75 77 83 93 88 80 76 74 66 69 72 69 65 58 57 65 54 52 50 58 49 47 45 51 49 65 70 66 101 95 99 97 91 90 82 81 71 77 75 68 61 66 68 72 64 67 61 65 66 68 72 69 72 70 78 64 72 63 61 63 65 63 63 61 61 67 59 57 68 66 72 71 65 64 69 63 64 64 67 66 63 66 60 62 67 64 66 67 65 53 61 49 54 63 60 73 102 95 78 73 119 131 144 145 143 149 131 143 138 136 115 135 135 134 125 133 134 103 135 128 129 131 132 132 130 131 132 135 130 134 133 138 117 135 129 133 128 131 120 133 132 136 134 138 127 132 135 135 132 133 138 135 140 138 139 131 108 131 137 132 135 133 142 144 135 120 118 100 90 125 130 104 129 133 121 134 138 139 138 137 137 128 128 122 122 99 113 104 108 121 122 128 121 116 112 110 115 88 83 106 105 82 84 112 108 96 105 116 110 109 93 85 108 119 120 121 120 110 118 110 112 118 110 92 62 64 67 67 76 78 100 117 140 156 165 153 138 139 142 133 109 99 138 137 116 99 87 92 96 131 140 158 152 151 142 137 137 149 128 142 128 151 154 166 164 143 156 180 171 188 170 189 171 173 159 154 144 137 134 134 128 135 141 141 142 147 148 145 147 146 153 157 156 152 157 150
130 76 101 123 125 106 121 93 99 114 123 119 116 129 148 148 136 124 149 144 167 139 132 135 144 123 113 115 112 122 134 142 131 117 107 105 139 133 147 162 111 158 107 137 139 137 167 165 159 161 169 170 151 131 125 72 144 125 74 69 72 138 117 136 144 142 107 145 140 138 113 116 130 129 145 154 130 135 140 137 115 169 178 137 117 157 185 156 127 130 148 195 246 264 265 275 224 264 236 211 236 261 213 272 219 260 258 257 234 221 238 189 188 115 163 187 183 162 172 157 120 84 181 175 171 173 132 124 199 195 272 286 317 377 349 306 282 239 223 163 198 193 192 118 195 171 247 123 127 132 212 208 189 213 272 266 324 278 319 222 253 307 276 327 323 345 358 374 298 302 257 342 416 512 455 422 451 588 410 255 283 262 262 244 278 295 249 249 229 248 264 243 196 241 227 242 198 182 205 224 198 190 183 154 149 154 154 137 116 123 83 91 100 93 141 134 127 121 147 145 145 108 147 132 113 95 112 118 105 103 105 92 110 79 79 110 76 56 77 57 63 59 58 57 70 60 62 73 70 57 70 61 72 69 57 55 69 61 56 52 61 53 54 65 49 49 46 57 53 66 90 99 97 91 89 93 86 79 71 78 72 72 81 77 77 76 76 73 65 68 62 68 72 72 70 73 79 76 80 82 79 69 76 66 63 66 62 64 64 67 61 59 75 74 70 68 64 62 68 61 63 64 64 63 64 65 63 63 62 68 66 70 64 69 68 65 63 66 54 57 74 78 68 99 70 121 125 117 140 141 111 125 130 133 94 128 131 107 118 120 103 115 124 121 115 112 110 130 131 133 132 134 138 133 136 137 137 128 132 134 130 134 133 132 131 137 139 131 140 138 135 138 133 133 138 141 141 141 139 141 129 136 138 142 139 136 133 138 136 123 114 99 118 112 125 130 125 132 144 142 138 139 137 136 136 124 122 105 117 122 118 100 115 125 122 128 122 113 110 110 105 81 88 116 112 89 98 117 114 113 110 112 113 116 92 91 109 119 118 118 121 102 117 113 122 104 111 112 65 65 67 68 73 80 99 136 144 153 157 164 157 148 131 115 104 142 138 125 109 117 106 88 88 123 142 164 164 168 160 147 151 159 154 157 158 171 172 162 176 165 153 179 172 171 155 153 142 142 130 128 130 131 133 142 138 145 147 161 163 166 167 162 166 169 164 165 168 166 166 158
108 95 101 111 120 93 98 97 127 138 146 153 154 125 121 106 101 132 134 111 147 151 132 153 125 143 108 113 129 129 129 125 131 119 121 133 155 159 134 129 137 162 145 125 156 182 184 167 159 150 134 129 165 139 149 137 114 132 157 109 176 124 139 109 104 114 91 135 149 137 138 106 124 147 131 111 138 164 136 166 166 103 119 137 185 171 170 196 125 173 194 245 224 231 220 222 240 229 272 247 181 178 181 180 182 143 203 113 176 153 142 208 142 107 119 197 150 187 115 128 84 91 160 84 100 100 91 154 155 250 225 318 290 275 215 217 198 172 212 129 187 163 158 178 198 231 262 206 239 143 176 189 202 261 249 267 322 241 287 297 307 383 303 321 300 347 338 373 383 324 319 303 297 403 394 434 382 353 360 314 346 262 271 286 244 252 232 247 262 250 242 193 230 237 210 236 214 216 229 237 227 220 208 155 128 140 162 151 141 102 99 90 156 133 151 148 146 145 149 145 135 147 131 142 143 139 126 115 110 122 121 134 102 112 90 119 88 125 91 68 93 54 53 60 56 62 54 55 55 60 59 54 59 60 64 69 62 76 61 56 51 52 53 51 40 48 58 68 62 85 81 84 73 72 76 80 80 88 82 78 80 81 82 80 79 73 69 63 63 59 65 77 88 85 82 82 84 84 83 85 78 77 83 74 67 70 65 63 56 62 60 78 94 89 83 87 85 86 85 70 85 88 75 76 71 71 73 81 70 68 72 64 67 65 65 66 67 66 64 72 55 54 69 60 71 78 83 97 86 101 122 83 85 114 128 108 131 126 134 134 142 137 135 137 135 134 134 131 135 135 133 137 134 133 135 135 135 134 136 135 135 133 134 134 133 132 132 132 136 138 135 136 138 140 138 139 138 139 137 138 136 140 139 141 137 144 135 131 108 115 108 123 125 141 133 141 136 139 147 146 142 133 124 117 129 127 120 108 107 126 124 123 127 119 115 120 108 98 116 121 118 112 102 106 94 90 109 116 111 113 115 114 117 109 110 100 117 122 120 120 111 119 120 114 121 99 112 109 71 67 68 70 64 74 77 92 109 174 156 134 117 120 107 134 156 151 139 126 143 105 133 91 89 100 122 141 166 165 158 176 175 179 184 182 185 181 180 170 160 166 154 138 132 132 118 129 136 131 136 141 152 167 165 171 164 181 184 189 177 186 171 172 157 170 205 201 184 188 189 182
148 126 81 101 109 88 115 138 143 107 142 128 125 141 142 142 147 127 129 141 146 159 146 133 114 112 100 96 125 137 132 160 155 145 119 127 153 182 187 169 178 168 165 164 170 173 136 105 126 159 136 121 119 125 158 162 162 143 85 167 180 69 79 108 89 110 133 116 121 128 142 127 129 100 150 109 117 125 111 97 118 145 183 149 194 197 177 169 134 186 160 193 171 251 170 186 157 193 147 139 194 193 155 143 96 147 115 116 184 118 138 101 106 172 175 122 125 190 164 113 84 109 235 213 193 178 165 156 206 267 281 256 236 267 270 257 204 171 216 197 204 195 175 179 221 264 278 292 230 171 243 224 237 227 249 184 309 383 345 356 267 358 320 330 385 354 377 402 418 366 345 311 299 320 367 339 389 335 357 394 463 298 259 276 284 312 260 266 279 251 246 241 237 246 231 222 222 234 216 216 195 210 205 161 145 144 160 147 156 117 149 155 158 153 150 149 144 143 140 135 117 100 85 117 139 140 127 136 108 138 133 136 128 129 110 112 129 120 119 111 109 116 111 114 100 83 55 53 57 55 53 51 51 52 51 52 53 53 53 53 56 52 55 51 63 52 57 59 65 69 71 71 81 82 81 81 83 84 83 86 84 83 83 91 85 82 85 81 75 57 81 87 88 90 88 89 85 83 85 85 90 85 83 77 77 70 68 68 55 64 63 86 89 91 87 89 92 87 93 87 90 77 90 86 92 82 89 95 90 95 86 84 82 71 68 76 76 70 68 68 69 69 66 63 57 57 56 61 71 112 126 127 136 145 138 124 116 113 115 114 134 136 140 137 138 134 138 133 137 135 134 141 131 134 131 130 126 130 129 130 129 130 130 135 134 132 132 130 130 133 132 132 132 136 137 136 134 134 135 137 137 137 135 135 124 134 132 129 132 132 126 131 135 135 138 140 140 137 132 127 140 127 131 139 131 112 109 130 128 132 128 133 132 124 110 103 110 120 122 123 122 111 101 112 116 96 89 95 111 113 113 113 112 110 104 96 121 108 112 118 115 117 121 123 115 118 110 96 73 75 65 66 67 67 84 83 94 153 150 135 129 127 149 156 148 143 158 177 160 169 153 98 94 101 103 134 146 155 153 145 142 154 142 164 167 152 141 127 131 126 117 114 130 124 139 156 157 174 174 176 172 160 161 148 141 153 170 175 201 205 204 207 202 196 188 172 177 183 204 206
151 150 84 106 103 84 116 126 118 91 128 130 131 140 126 132 144 148 147 139 153 138 118 106 138 126 86 136 146 100 110 122 135 150 145 120 140 154 177 169 139 146 157 160 160 146 118 151 142 139 121 160 163 155 170 158 137 132 137 146 70 158 112 79 84 99 114 115 125 132 152 138 137 97 157 111 107 94 107 156 125 209 214 178 210 215 175 142 168 179 230 206 225 184 207 130 170 173 141 195 156 200 158 117 168 158 164 111 152 102 86 123 164 116 133 150 138 121 180 123 84 124 203 238 171 133 152 211 152 242 177 291 319 358 280 235 252 179 180 180 211 196 179 214 218 300 304 258 215 211 204 217 228 245 176 264 231 342 300 305 287 368 340 331 392 377 413 338 392 419 308 290 291 315 259 366 351 463 341 372 404 397 259 312 347 297 271 266 254 248 249 230 256 245 227 221 246 243 220 176 181 179 197 164 142 131 136 158 151 135 158 144 149 142 144 149 131 141 142 157 140 119 110 132 116 116 110 128 96 137 126 132 126 115 127 119 99 109 110 100 100 97 104 101 103 100 87 78 59 45 51 56 56 51 65 52 48 53 48 52 59 58 49 49 57 54 57 89 85 80 82 71 65 83 82 82 85 85 88 94 94 90 92 89 84 83 81 68 63 68 76 71 72 82 90 87 85 84 84 85 85 91 87 87 79 80 76 69 60 56 65 100 92 89 89 96 89 88 88 87 95 95 90 98 93 91 94 88 99 90 99 85 87 92 84 84 73 74 77 72 73 66 68 66 67 65 53 55 64 61 63 117 105 116 104 111 111 134 127 133 144 138 125 136 141 133 136 132 130 141 131 122 133 127 130 130 126 134 132 128 129 131 129 129 132 133 128 130 134 138 132 131 132 134 133 137 136 136 136 135 136 135 134 134 136 134 133 130 132 137 133 133 138 136 138 141 140 135 134 136 136 139 131 126 116 128 128 131 132 131 134 129 127 113 103 100 118 123 119 127 119 100 108 123 123 109 106 91 108 111 112 112 111 110 98 107 120 114 121 119 117 117 119 123 123 116 88 71 105 80 69 70 68 67 67 90 95 109 134 148 139 130 125 147 174 171 169 176 165 158 162 127 94 98 94 109 117 130 135 127 137 153 163 158 136 122 120 115 112 109 112 134 162 164 162 166 164 159 148 139 137 143 129 147 147 149 145 144 163 156 196 203 207 201 195 191 201 213 216 207
138 117 120 77 105 78 110 88 115 126 134 112 92 129 135 138 126 135 107 114 123 132 121 99 137 119 82 105 96 98 115 140 143 124 151 131 145 140 130 131 162 160 169 168 178 144 159 187 144 167 159 120 136 162 144 144 140 132 146 138 130 116 102 88 67 108 131 107 79 117 106 110 108 111 89 95 113 151 148 154 134 167 137 171 159 172 117 153 196 184 156 164 185 167 184 138 152 112 126 134 171 152 157 160 164 139 129 169 74 143 137 146 113 84 84 108 84 84 98 154 242 214 282 208 200 210 114 128 161 255 187 211 361 285 317 248 226 206 229 166 144 217 220 237 227 284 271 296 306 167 190 150 185 198 224 234 236 322 372 335 392 342 320 289 308 295 301 297 308 313 378 412 426 318 315 266 390 420 335 419 391 493 293 284 277 248 285 270 282 273 266 269 249 254 263 243 238 208 215 234 192 193 190 181 157 151 146 153 150 131 153 150 138 142 144 112 95 91 87 98 79 88 119 97 113 111 127 92 74 62 65 77 78 72 73 70 74 69 60 58 59 54 55 55 77 64 66 75 63 59 50 63 63 51 52 59 64 65 56 60 49 53 57 54 78 86 80 83 85 85 90 93 90 88 92 96 92 101 93 93 91 90 93 84 92 83 69 68 72 88 89 86 87 82 87 88 89 92 88 88 87 90 96 89 82 69 68 68 54 64 94 92 92 91 91 100 91 92 99 93 92 93 94 95 96 96 99 98 101 102 90 85 75 69 84 87 88 87 83 80 79 81 72 71 73 66 70 68 71 60 54 64 72 120 119 113 107 111 87 75 83 118 109 132 134 130 135 122 125 125 107 123 128 125 126 121 121 128 130 131 132 130 120 131 130 131 129 129 129 130 131 131 132 132 133 135 133 133 133 132 133 133 137 136 135 134 135 135 136 136 136 138 138 138 140 141 142 141 139 138 138 137 124 118 134 138 135 134 137 135 130 121 117 115 122 124 130 130 124 124 112 118 118 115 110 116 116 111 99 108 111 112 113 112 119 103 126 118 118 121 120 116 123 122 98 79 116 107 110 107 82 89 68 66 71 85 81 106 155 143 151 171 160 163 141 167 182 174 175 177 159 140 141 101 95 90 124 127 129 130 123 120 118 115 103 104 106 140 151 162 155 143 112 115 120 132 143 146 135 181 191 175 173 186 191 181 173 161 149 180 186 182 163 184 193 197 205 211 226 222
141 133 109 97 100 95 89 84 108 115 121 113 93 115 134 124 136 97 97 117 144 122 107 96 138 120 98 78 115 128 140 131 144 144 118 121 139 131 139 108 141 146 139 140 127 151 142 209 175 170 174 139 185 185 179 155 163 139 146 121 119 111 134 118 82 62 64 71 89 77 75 98 85 76 120 110 84 133 123 153 140 126 160 149 136 147 146 177 163 150 125 178 190 165 131 147 134 183 137 145 120 168 145 183 159 183 115 84 122 168 84 84 84 102 123 183 230 231 174 185 215 205 209 155 205 174 178 117 253 236 254 240 320 297 239 239 238 222 188 230 188 199 201 179 239 270 293 313 306 182 231 231 192 262 284 291 282 314 352 285 294 309 279 288 342 282 289 287 302 334 353 417 482 334 344 389 298 306 283 367 340 386 331 412 299 252 261 275 252 245 274 253 250 240 243 232 237 232 231 210 216 198 164 179 162 166 159 159 162 152 153 152 148 148 155 156 139 123 109 76 90 87 129 125 133 141 93 100 143 131 105 82 66 64 67 75 98 83 125 95 94 100 58 77 53 52 90 88 75 61 52 68 56 57 56 65 60 55 55 51 50 58 57 68 76 89 85 89 94 92 96 98 99 97 94 99 101 102 100 98 96 98 94 98 89 71 74 77 89 98 96 96 83 90 92 90 100 97 92 99 90 92 93 86 89 74 71 62 60 89 101 97 94 100 96 97 94 92 94 94 95 102 97 98 98 98 96 92 92 92 81 84 92 89 94 95 89 92 91 83 85 75 75 66 73 65 71 72 69 67 59 59 60 91 136 136 122 121 110 106 97 95 93 77 78 95 92 95 95 94 99 114 122 127 127 126 124 124 124 128 129 126 124 129 132 128 130 132 132 133 132 131 131 132 131 132 132 131 130 130 131 132 134 132 134 135 135 134 134 134 136 134 135 138 138 138 139 139 137 137 137 136 117 131 138 137 134 137 138 120 120 110 109 128 130 133 136 135 124 122 113 118 120 112 107 123 121 102 112 112 111 115 112 114 117 108 118 114 118 119 119 126 122 103 97 83 109 112 105 104 84 85 72 70 72 79 86 108 143 155 168 177 172 160 155 158 168 186 198 153 181 159 166 133 107 94 92 101 118 126 115 100 104 106 118 139 143 161 163 151 145 114 138 150 153 166 155 156 147 138 204 180 189 206 192 173 164 190 149 171 198 195 180 183 177 180 187 177 179 199
145 131 138 132 125 87 87 107 108 90 110 80 111 107 94 115 117 104 111 135 130 121 117 132 107 105 90 77 100 127 121 142 131 152 128 100 143 135 99 106 135 162 156 162 206 193 192 213 230 197 138 130 165 175 175 152 128 159 119 94 132 171 148 153 137 110 66 126 138 125 152 166 174 145 136 158 157 114 111 85 85 119 135 151 103 154 143 180 172 142 168 181 209 202 166 119 169 141 94 191 149 95 110 154 142 140 146 68 85 84 84 121 194 114 175 170 160 186 201 202 206 185 207 204 155 143 165 128 249 198 167 186 270 365 240 215 226 219 220 225 179 176 177 253 240 286 316 310 272 299 244 260 302 316 269 252 237 289 308 262 232 241 272 328 244 325 285 336 311 288 320 419 378 342 335 364 349 437 366 326 342 341 329 299 256 259 247 268 284 298 285 285 276 269 232 208 247 219 214 215 194 201 195 168 170 173 112 103 123 99 109 101 92 122 115 86 78 79 110 139 153 150 148 145 144 144 142 140 126 135 118 92 109 134 133 128 128 101 77 94 86 81 123 130 82 88 121 117 87 69 76 65 59 58 58 56 55 54 51 54 58 95 91 92 100 102 107 98 123 120 122 124 121 123 123 116 119 116 122 118 117 116 105 76 83 120 116 111 115 107 107 105 104 109 109 108 105 103 99 90 94 96 93 86 84 68 70 63 61 96 93 90 94 104 97 96 98 106 100 105 102 99 108 102 104 104 102 101 83 91 98 97 94 89 96 92 95 94 89 90 94 82 85 82 76 78 79 70 70 77 75 73 72 76 54 101 146 141 148 145 136 138 132 126 124 128 136 135 120 129 130 125 123 121 123 124 131 128 128 103 103 128 127 126 125 129 126 126 131 128 127 124 126 129 129 128 128 129 124 128 128 128 129 130 129 131 128 128 132 137 131 131 130 136 134 137 137 137 139 140 139 125 140 139 136 136 137 138 136 136 126 120 128 140 138 139 123 112 127 129 134 124 124 121 125 120 123 122 126 125 120 119 114 117 116 125 121 117 125 115 123 123 118 98 87 110 110 109 100 86 88 89 83 68 67 95 87 96 110 155 171 152 165 185 187 201 211 197 180 174 169 182 173 126 114 137 128 121 97 96 98 102 99 99 108 117 116 117 121 130 130 145 152 141 170 163 181 175 152 166 153 182 179 196 189 189 192 187 159 171 189 185 172 194 219 207 215 222 230 196
121 113 114 120 99 110 68 81 96 90 102 85 86 92 103 119 128 113 94 112 125 112 128 125 129 127 95 90 103 131 133 114 101 111 135 112 121 88 115 132 168 173 151 180 212 192 195 204 239 200 173 177 168 141 127 145 127 132 136 128 135 174 150 146 138 94 76 79 122 127 173 165 175 209 166 156 138 136 134 138 136 102 93 144 131 172 205 162 162 145 133 177 173 136 176 198 144 105 153 138 108 150 128 173 142 76 71 80 91 84 84 209 164 160 180 159 173 199 202 169 253 217 188 246 217 244 232 164 138 194 236 167 186 219 209 214 230 250 226 209 211 210 224 281 239 277 288 331 256 333 288 242 276 278 265 301 271 236 223 241 317 327 321 286 334 318 359 314 451 457 471 463 404 358 345 377 428 410 372 305 342 314 325 324 301 296 269 242 264 251 261 282 278 267 228 221 226 223 234 219 194 221 172 176 170 160 148 135 139 135 94 108 93 96 89 77 87 95 118 145 143 148 137 140 138 116 124 142 141 125 99 73 136 128 129 98 104 109 104 84 82 107 124 123 110 130 121 123 89 74 74 68 62 66 56 55 58 50 54 55 62 91 73 100 117 111 117 117 111 124 133 139 135 135 129 128 125 128 124 126 125 122 106 70 81 117 120 128 120 109 118 125 125 122 117 112 100 102 99 94 91 82 83 71 72 75 71 67 60 61 90 92 92 77 91 96 93 103 101 101 109 106 101 101 99 95 89 92 96 93 100 95 96 97 96 94 93 92 91 98 88 90 84 86 85 84 83 74 69 73 78 73 72 78 60 60 132 135 139 151 149 122 137 125 139 141 138 134 135 134 134 130 133 131 130 130 131 125 108 122 126 123 126 120 108 115 120 121 124 125 133 128 127 127 126 129 125 122 126 124 127 131 133 129 131 131 128 136 134 129 130 130 133 133 135 136 138 137 136 144 129 137 136 136 138 139 139 140 140 141 128 135 143 138 129 133 132 139 131 134 129 125 123 122 122 126 121 130 133 131 119 126 118 118 117 116 122 123 122 116 120 122 112 106 112 109 111 112 93 88 92 89 90 78 120 72 84 92 99 133 126 141 136 196 213 204 198 196 192 160 144 148 124 124 106 145 155 150 118 128 123 113 107 104 118 132 155 163 150 169 164 164 160 160 155 189 186 180 176 176 167 180 181 201 201 191 195 190 155 161 202 201 205 188 192 196 206 227 231 208
124 125 116 118 108 114 110 114 121 115 81 68 94 106 95 108 108 119 110 95 100 106 97 95 108 112 123 89 95 116 128 145 140 101 85 84 103 124 111 134 142 122 120 135 161 151 169 195 245 193 156 129 152 169 167 164 164 168 126 125 176 154 146 151 153 147 140 65 109 100 103 115 167 132 163 163 179 141 171 151 138 102 170 109 112 103 105 101 150 183 208 200 159 108 151 148 129 104 87 119 186 190 193 121 127 152 82 121 168 135 173 114 154 192 185 171 169 160 132 150 197 182 191 221 213 226 183 209 191 210 301 245 337 302 186 161 292 249 240 240 228 202 196 207 284 291 303 336 331 318 366 318 306 282 217 243 212 330 313 257 320 304 385 405 424 383 389 451 462 440 361 374 443 341 341 458 462 441 366 409 447 385 322 356 364 335 281 320 341 225 220 259 235 307 291 224 247 242 223 210 222 213 215 172 157 155 164 159 118 155 145 154 150 155 121 150 144 141 146 148 148 142 139 146 140 104 109 108 111 90 142 135 131 124 126 105 136 134 128 127 124 123 111 106 110 112 107 100 91 88 85 78 65 72 61 57 53 54 60 62 80 102 118 113 123 136 144 131 141 141 142 140 136 131 129 129 127 121 106 94 113 106 83 115 120 104 122 128 126 115 124 124 121 120 121 123 114 105 99 104 96 97 92 88 86 71 68 61 109 123 129 135 138 137 128 129 129 120 122 119 121 115 114 116 110 114 111 107 107 106 102 101 102 102 100 101 98 99 95 93 92 91 89 88 93 88 82 76 84 76 77 73 72 69 58 61 128 83 147 146 149 141 135 143 144 139 138 136 136 133 132 132 133 130 130 131 131 109 100 125 129 122 111 115 123 124 127 119 120 123 119 107 114 106 100 102 105 104 112 121 124 130 127 126 126 132 128 128 130 132 130 137 134 135 134 136 137 137 141 137 138 138 139 137 139 140 140 143 150 141 139 147 138 139 126 133 132 142 135 133 133 128 128 127 137 126 129 127 128 129 134 125 120 118 117 114 118 114 114 117 125 111 101 110 107 116 116 114 109 88 92 90 62 119 117 112 73 87 95 145 189 139 177 158 177 220 190 212 217 196 185 136 124 111 105 179 157 183 145 159 155 129 136 129 103 117 125 179 184 190 177 173 151 168 169 158 154 171 187 191 173 198 184 215 213 198 186 173 183 177 183 199 208 226 231 232 228 221 237 223
105 120 122 113 106 106 100 102 82 88 83 100 62 91 79 82 100 95 100 94 98 108 121 115 108 87 115 110 90 125 127 134 139 109 102 82 123 145 133 125 119 113 145 171 144 154 187 203 191 143 105 156 146 142 147 171 166 177 152 172 170 165 166 165 92 177 159 167 95 65 123 113 159 168 157 142 135 152 158 169 167 155 227 184 192 165 145 110 217 200 173 193 173 128 181 131 121 85 127 192 186 203 199 189 175 164 69 110 155 153 186 177 193 187 112 106 140 178 178 215 155 129 183 183 175 216 165 189 267 255 182 219 170 156 168 141 226 255 213 261 256 180 250 221 253 337 330 360 352 343 364 379 287 253 287 262 330 208 208 259 307 369 353 414 414 417 427 414 469 492 331 410 361 526 490 452 490 461 365 397 438 463 394 393 358 395 334 302 266 291 251 274 255 245 232 213 236 235 239 235 221 193 192 178 173 176 161 167 159 158 155 153 151 150 149 147 147 146 147 137 139 145 140 141 135 142 140 133 136 142 138 142 140 136 135 127 133 126 106 88 108 109 104 92 88 86 83 80 76 88 79 66 78 71 67 51 55 55 95 103 135 141 135 133 137 140 130 128 124 129 123 127 128 133 130 127 127 128 126 118 120 116 86 87 92 116 125 122 125 122 127 122 121 120 118 114 120 118 117 116 99 95 93 93 88 78 79 79 68 63 123 117 123 120 118 122 119 120 117 117 116 115 118 121 115 112 111 112 110 115 111 109 110 107 109 113 104 104 100 103 99 99 97 97 93 92 93 76 83 81 79 75 77 77 81 75 58 60 136 139 133 138 143 138 135 130 131 134 134 132 125 109 130 127 115 120 98 117 103 87 88 90 85 84 87 88 96 107 111 119 113 123 127 120 124 124 128 121 123 117 121 122 125 124 128 129 131 129 131 133 134 139 132 132 132 136 137 136 135 141 138 140 141 137 138 140 140 142 143 147 143 147 148 140 138 137 139 140 140 142 137 143 139 136 137 128 129 125 132 120 126 127 125 130 130 122 120 117 114 114 123 109 106 103 113 111 114 99 82 93 72 83 114 127 123 124 106 72 72 90 87 122 158 178 195 186 207 216 250 208 189 154 168 122 138 119 158 169 174 188 171 157 135 128 136 115 106 124 132 177 188 188 183 190 179 175 167 189 204 198 179 199 203 205 204 191 201 203 191 177 167 180 200 199 202 238 251 248 245 253
103 109 116 118 110 118 111 113 108 99 88 86 64 68 73 86 86 87 87 81 92 98 101 114 119 115 84 81 77 88 107 115 114 114 100 92 104 130 150 117 131 171 158 142 143 190 180 169 201 109 178 116 139 153 144 167 173 166 181 179 167 181 192 95 150 128 127 112 60 64 65 81 132 101 142 97 147 177 169 195 175 152 188 220 179 152 154 120 193 146 209 154 190 145 160 131 96 154 150 192 141 152 145 137 147 147 73 101 139 145 160 141 168 190 119 105 225 191 187 154 164 118 153 200 133 145 200 130 154 159 221 145 170 173 135 139 219 227 192 234 215 274 238 234 223 306 338 351 341 347 367 381 307 195 258 296 276 262 221 212 277 242 231 370 411 383 412 373 394 379 272 337 465 499 453 407 498 550 369 418 486 504 379 360 354 372 342 297 279 256 258 264 269 247 269 228 196 239 205 210 198 181 178 174 179 169 170 149 139 161 152 151 149 150 154 145 141 143 139 144 142 142 142 146 141 143 141 138 137 133 135 144 135 138 131 128 126 129 118 110 99 87 82 78 72 73 62 62 58 59 58 62 62 54 54 54 53 58 110 133 126 127 116 106 130 133 126 133 134 124 122 128 124 117 128 128 117 121 100 85 86 107 115 80 105 123 123 127 131 127 126 122 121 120 121 119 119 120 122 116 108 100 95 91 93 84 73 72 62 63 121 119 128 126 113 127 119 120 118 120 119 121 113 112 110 112 115 112 113 114 113 109 110 112 111 109 106 107 102 102 102 102 100 106 96 88 80 84 82 87 82 83 77 79 78 74 64 61 112 91 134 125 90 132 134 132 123 133 134 126 107 115 123 125 119 117 91 89 83 97 105 109 109 111 115 117 121 123 125 124 123 126 129 124 126 128 127 129 128 130 129 131 131 131 129 130 138 136 131 130 130 138 128 129 129 130 130 132 134 135 136 138 137 138 140 140 140 143 143 141 142 143 143 145 144 144 141 142 141 142 139 144 145 142 135 136 130 124 130 131 125 125 124 130 122 120 115 118 116 123 115 121 112 96 119 117 113 108 89 74 100 113 139 136 127 134 108 87 73 75 144 167 172 203 195 216 226 245 222 216 203 174 148 161 141 187 177 195 190 189 179 171 161 145 145 131 123 116 110 119 143 172 202 200 188 181 179 181 208 201 185 196 199 206 200 207 211 203 181 198 180 172 201 216 208 203 218 244 243 258
93 100 105 116 120 109 109 114 105 104 105 102 101 82 73 60 67 82 78 65 85 64 82 102 102 109 94 90 82 78 77 95 98 118 115 84 98 111 90 107 148 143 124 143 188 155 185 169 117 164 106 141 136 136 174 161 185 175 170 140 155 167 158 162 92 157 161 167 174 141 111 59 119 131 65 169 149 161 169 111 131 139 199 211 170 152 180 167 119 196 184 146 192 136 168 80 77 170 169 126 177 131 189 138 164 128 65 100 104 79 131 132 128 144 85 175 147 180 182 129 173 121 108 129 110 111 119 141 155 149 157 162 175 128 213 224 195 183 206 213 194 237 250 258 267 337 285 331 363 352 339 386 351 208 194 236 245 292 323 230 263 327 300 228 322 284 335 339 250 244 307 336 519 442 434 459 581 508 521 393 512 423 392 409 359 356 337 286 277 263 274 264 262 258 262 233 200 189 226 200 134 167 172 170 168 158 168 167 164 155 156 150 144 147 150 142 135 134 145 143 135 137 144 142 132 143 138 140 142 137 140 136 138 141 141 121 113 106 92 81 79 66 61 89 72 131 112 78 64 62 57 56 56 61 64 58 58 76 116 109 125 138 149 134 149 146 143 132 127 128 130 106 115 128 107 129 123 125 127 123 128 118 101 119 115 120 123 123 118 122 122 127 125 119 119 120 124 118 117 119 113 103 101 101 98 91 71 70 63 65 105 119 117 115 99 118 114 111 108 106 105 106 105 107 107 106 108 115 116 109 109 107 106 110 110 107 105 107 103 101 100 100 81 90 98 103 96 96 97 101 90 92 96 77 81 74 59 60 68 90 64 116 116 105 140 128 121 95 109 86 75 72 88 88 99 99 101 116 118 122 123 120 117 121 121 121 125 124 125 121 126 124 128 128 127 123 126 126 127 132 129 131 125 125 124 126 133 122 130 130 133 127 127 126 126 127 127 128 130 132 132 134 135 137 137 139 140 141 142 143 145 146 147 145 146 145 146 147 146 145 153 145 142 139 136 130 130 128 127 126 126 128 130 128 122 119 115 121 115 105 110 97 110 117 121 121 116 94 75 86 146 154 127 147 149 133 135 108 102 74 161 154 121 128 167 178 208 210 199 172 163 159 128 177 175 127 132 188 199 188 201 187 152 162 163 147 149 150 138 136 118 115 167 176 188 200 185 180 203 192 190 220 224 227 235 214 225 228 228 218 208 214 234 226 233 243 239 256 264 228
90 103 107 107 113 120 107 105 98 94 96 95 92 83 69 60 60 66 62 60 60 60 109 108 104 102 94 91 86 78 81 90 96 112 110 80 79 94 116 128 97 112 154 190 114 162 170 152 112 92 170 172 126 161 155 113 161 182 157 156 93 160 120 159 94 164 167 147 145 143 101 55 74 57 111 112 119 160 175 116 136 196 195 160 188 210 166 136 176 201 245 148 181 103 138 75 104 199 178 101 127 176 135 93 132 90 112 71 90 97 113 120 120 89 102 178 135 119 182 197 124 134 99 105 111 135 114 162 153 170 202 157 174 160 195 192 222 194 171 191 238 258 258 287 264 305 328 346 383 389 380 442 417 372 283 233 276 292 313 325 338 319 347 363 327 355 373 392 280 316 326 338 516 473 453 432 479 453 476 435 470 409 379 342 368 371 404 282 271 287 252 252 262 247 223 240 231 210 222 204 177 176 174 157 116 140 153 125 157 160 160 137 148 144 137 138 91 138 152 145 146 147 147 144 147 134 132 143 141 147 137 137 131 117 125 116 97 75 63 59 76 94 126 121 134 130 98 75 69 64 62 62 59 57 58 60 75 127 132 130 120 139 149 145 146 149 142 142 139 130 128 127 122 127 115 122 120 123 125 124 118 124 100 128 121 120 120 117 117 124 123 129 125 124 113 114 113 114 114 117 104 102 96 97 91 71 71 72 64 64 67 85 88 111 113 112 109 105 108 102 101 107 103 104 103 104 101 105 105 107 106 106 115 105 106 107 104 103 105 104 101 89 105 99 99 98 99 98 97 97 96 92 83 80 79 80 62 58 69 99 97 91 96 76 69 70 71 71 69 97 97 102 106 112 117 117 117 122 119 114 114 115 121 114 116 117 123 120 116 117 118 117 122 126 120 116 123 117 119 126 121 123 124 126 128 124 129 129 132 130 129 128 128 124 125 126 129 134 134 134 133 133 136 136 136 139 140 142 143 144 146 145 144 145 143 144 145 146 145 146 147 142 141 145 142 133 132 135 129 130 126 125 131 128 127 125 109 115 120 117 116 115 126 116 118 122 117 105 74 69 171 172 153 143 128 122 114 106 104 72 104 177 176 164 190 164 242 227 197 178 167 154 157 145 186 165 122 138 174 194 201 192 170 170 164 145 166 148 157 142 141 120 122 116 131 150 134 140 139 142 147 159 161 230 237 211 243 232 219 232 231 230 218 243 238 244 264 237 219 219
96 100 91 99 104 107 108 108 90 95 86 76 66 63 60 60 105 82 134 131 60 60 66 94 80 89 109 107 91 141 70 83 92 96 87 79 101 109 123 114 81 113 160 111 128 144 121 108 93 196 177 144 94 98 145 170 165 180 168 168 167 181 185 184 170 167 163 151 159 183 122 101 190 62 142 94 106 74 92 150 195 171 184 188 203 212 168 137 191 159 168 126 96 168 122 67 78 149 159 115 165 141 130 105 142 104 186 144 155 59 64 79 76 103 173 76 82 80 85 95 99 150 153 173 205 171 148 141 133 178 168 186 166 159 151 158 190 226 194 166 182 209 215 272 309 226 322 345 375 371 417 392 335 258 233 247 277 245 349 322 250 256 283 282 376 318 341 360 348 295 311 330 318 634 430 407 477 450 426 548 445 469 383 413 461 419 447 393 293 322 259 266 257 244 245 219 221 232 190 179 182 173 166 147 160 161 148 114 96 104 116 92 85 82 91 99 91 99 133 145 138 142 148 144 149 142 98 136 138 134 138 135 125 125 115 101 87 64 62 102 122 129 124 125 134 126 135 108 68 66 63 71 70 59 57 117 113 136 145 143 150 142 136 152 141 151 139 140 138 142 138 133 138 134 133 137 138 138 130 134 123 119 117 117 116 115 114 115 120 117 117 124 106 110 111 107 121 114 102 94 92 101 95 84 72 66 65 109 84 112 118 118 113 109 107 107 111 101 102 101 101 97 104 107 107 106 102 104 102 103 109 106 108 105 102 101 103 101 103 99 98 98 98 99 101 100 98 100 97 99 99 98 94 90 78 72 58 61 98 106 125 122 119 110 117 111 120 120 123 123 122 120 120 119 118 115 116 115 116 113 111 114 113 113 112 113 117 119 119 119 125 120 119 120 117 125 121 125 129 131 132 126 130 128 127 129 135 133 131 129 130 128 128 128 130 130 128 129 137 133 133 139 135 136 138 140 143 144 142 144 143 147 144 141 142 143 143 143 144 145 146 146 146 152 149 140 136 135 139 138 132 132 127 122 113 121 119 123 121 120 116 124 125 126 128 132 125 92 79 74 98 125 128 159 136 115 133 116 114 70 142 188 215 176 193 222 195 184 191 166 167 184 180 185 200 175 151 128 215 199 203 195 180 172 179 162 175 170 181 197 173 145 136 136 129 138 162 163 190 200 178 218 222 188 214 257 271 283 270 268 259 240 258 285 272 263 262 257 229 241
79 90 85 83 100 97 93 82 89 102 68 60 60 60 164 85 120 69 169 156 139 60 64 60 104 113 110 96 114 105 147 72 59 84 108 69 95 119 141 125 76 79 100 89 93 93 97 91 110 166 176 119 166 166 156 175 180 180 140 167 137 180 182 182 198 187 170 170 182 179 208 196 64 159 105 56 101 126 118 192 185 152 147 135 180 198 190 226 180 148 142 226 173 161 103 74 72 69 80 78 92 87 91 115 99 98 174 129 146 67 64 75 90 79 82 91 115 132 124 136 148 148 214 139 142 163 204 199 197 187 199 169 141 152 105 119 200 228 197 212 163 213 266 300 302 187 261 309 315 371 365 388 217 321 354 217 250 261 293 293 243 272 275 340 302 326 309 334 399 316 332 289 324 439 457 388 394 426 422 480 502 515 429 434 423 378 323 334 285 271 256 257 237 244 212 232 207 211 199 182 178 169 168 135 106 161 142 150 151 158 146 147 136 102 88 131 77 78 97 118 143 124 138 142 145 139 127 128 88 115 125 130 119 98 85 77 64 119 137 127 130 134 138 144 128 121 96 100 74 70 69 69 57 62 115 117 111 114 150 142 139 150 148 141 148 154 144 150 138 137 136 140 135 133 133 139 132 133 133 138 122 123 113 131 132 135 117 116 111 96 118 111 100 108 108 106 111 102 108 96 87 76 70 68 67 70 109 116 109 110 112 112 112 111 113 104 106 100 101 96 101 97 96 95 101 95 95 94 96 101 108 101 110 105 104 99 103 99 100 102 102 97 99 103 102 99 99 100 99 99 97 96 95 88 77 76 64 62 107 114 124 126 131 125 124 124 121 120 119 118 118 118 119 118 116 114 113 111 112 115 113 111 115 113 111 113 117 116 113 116 116 119 116 121 120 121 127 127 127 127 128 131 132 128 132 126 126 128 131 129 131 128 137 130 135 129 131 131 134 133 137 136 137 137 140 140 145 143 144 143 143 144 144 149 141 144 140 142 144 145 146 146 154 151 150 149 143 138 137 135 131 134 120 123 129 128 121 117 117 119 120 124 121 128 126 125 124 115 79 74 91 122 158 129 163 152 156 137 120 116 176 176 198 195 215 221 238 232 195 227 182 183 161 189 200 185 161 140 178 192 211 188 197 210 180 207 194 198 207 154 144 137 147 126 133 151 166 185 233 219 221 244 222 181 247 293 314 318 296 293 278 302 285 301 289 291 252 295 280 287
